2468.000000 -2908.000000 1747.000000
2468.000000 -2908.000000 1745.000000
2468.000000 -2908.000000 1743.000000
2468.000000 -2908.000000 1741.000000
2468.000000 -2908.000000 1739.000000
2468.000000 -2908.000000 1737.000000
2468.000000 -2908.000000 1735.000000
2468.000000 -2908.000000 1733.000000
2468.000000 -2908.000000 1731.000000
2468.000000 -2908.000000 1729.000000
2468.000000 -2908.000000 1727.000000
2468.000000 -2908.000000 1725.000000
2468.000000 -2908.000000 1723.000000
2468.000000 -2908.000000 1721.000000
2468.000000 -2908.000000 1719.000000
2468.000000 -2908.000000 1717.000000
2468.000000 -2908.000000 1715.000000
2468.000000 -2908.000000 1713.000000
2468.000000 -2908.000000 1711.000000
2468.000000 -2908.000000 1709.000000
2468.000000 -2908.000000 1707.000000
2468.000000 -2908.000000 1705.000000
2468.000000 -2908.000000 1703.000000
2468.000000 -2908.000000 1701.000000
2468.000000 -2908.000000 1699.000000
2468.000000 -2908.000000 1697.000000
2468.000000 -2908.000000 1695.000000
2468.000000 -2908.000000 1693.000000
2468.000000 -2908.000000 1691.000000
2468.000000 -2908.000000 1689.000000
2468.000000 -2908.000000 1687.000000
2468.000000 -2908.000000 1685.000000
2468.000000 -2908.000000 1683.000000
2468.000000 -2908.000000 1681.000000
2468.000000 -2908.000000 1679.000000
2468.000000 -2908.000000 1677.000000
2468.000000 -2908.000000 1675.000000
2468.000000 -2908.000000 1673.000000
2468.000000 -2908.000000 1671.000000
2468.000000 -2908.000000 1669.000000
2468.000000 -2908.000000 1667.000000
2468.000000 -2908.000000 1665.000000
2468.000000 -2908.000000 1663.000000
2468.000000 -2908.000000 1661.000000
2468.000000 -2908.000000 1659.000000
2468.000000 -2908.000000 1657.000000
2468.000000 -2908.000000 1655.000000
2468.000000 -2908.000000 1653.000000
2468.000000 -2908.000000 1651.000000
2468.000000 -2908.000000 1649.000000
2468.000000 -2908.000000 1647.000000
2468.000000 -2908.000000 1645.000000
2468.000000 -2908.000000 1643.000000
2468.000000 -2908.000000 1641.000000
2468.000000 -2908.000000 1639.000000
2468.000000 -2908.000000 1637.000000
2468.000000 -2908.000000 1635.000000
2468.000000 -2908.000000 1633.000000
2468.000000 -2908.000000 1631.000000
2468.000000 -2908.000000 1629.000000
2468.000000 -2908.000000 1627.000000
2468.000000 -2908.000000 1625.000000
2468.000000 -2908.000000 1623.000000
2468.000000 -2908.000000 1621.000000
2468.000000 -2908.000000 1619.000000
2468.000000 -2908.000000 1617.000000
2468.000000 -2908.000000 1615.000000
2468.000000 -2908.000000 1613.000000
2468.000000 -2908.000000 1611.000000
2468.000000 -2908.000000 1609.000000
2468.000000 -2908.000000 1607.000000
2468.000000 -2908.000000 1605.000000
2468.000000 -2908.000000 1603.000000
2468.000000 -2908.000000 1601.000000
2468.000000 -2908.000000 1599.000000
2468.000000 -2908.000000 1597.000000
2468.000000 -2908.000000 1595.000000
2468.000000 -2908.000000 1593.000000
2468.000000 -2908.000000 1591.000000
2468.000000 -2908.000000 1589.000000
2468.000000 -2908.000000 1587.000000
2468.000000 -2908.000000 1585.000000
2468.000000 -2908.000000 1583.000000
2468.000000 -2908.000000 1581.000000
2468.000000 -2908.000000 1579.000000
2468.000000 -2908.000000 1577.000000
2468.000000 -2908.000000 1575.000000
2468.000000 -2908.000000 1573.000000
2468.000000 -2908.000000 1571.000000
2468.000000 -2908.000000 1569.000000
2468.000000 -2908.000000 1567.000000
2468.000000 -2908.000000 1565.000000
2468.000000 -2908.000000 1563.000000
2468.000000 -2908.000000 1561.000000
2468.000000 -2908.000000 1559.000000
2468.000000 -2908.000000 1557.000000
2468.000000 -2908.000000 1555.000000
2468.000000 -2908.000000 1553.000000
2468.000000 -2908.000000 1551.000000
2468.000000 -2908.000000 1549.000000
2468.000000 -2908.000000 1547.000000
2468.000000 -2908.000000 1545.000000
2468.000000 -2908.000000 1543.000000
2468.000000 -2908.000000 1541.000000
2468.000000 -2908.000000 1539.000000
2468.000000 -2908.000000 1537.000000
2468.000000 -2908.000000 1535.000000
2468.000000 -2908.000000 1533.000000
2468.000000 -2908.000000 1531.000000
2468.000000 -2908.000000 1529.000000
2468.000000 -2908.000000 1527.000000
2468.000000 -2908.000000 1525.000000
2468.000000 -2908.000000 1523.000000
2468.000000 -2908.000000 1521.000000
2468.000000 -2908.000000 1519.000000
2468.000000 -2908.000000 1517.000000
2468.000000 -2908.000000 1515.000000
2468.000000 -2908.000000 1513.000000
2468.000000 -2908.000000 1511.000000
2468.000000 -2908.000000 1509.000000
2468.000000 -2908.000000 1507.000000
2468.000000 -2908.000000 1505.000000
2468.000000 -2908.000000 1503.000000
2468.000000 -2908.000000 1501.000000
2468.000000 -2908.000000 1499.000000
2468.000000 -2908.000000 1497.000000
2468.000000 -2908.000000 1495.000000
2468.000000 -2908.000000 1493.000000
2468.000000 -2908.000000 1491.000000
2468.000000 -2908.000000 1489.000000
2468.000000 -2908.000000 1487.000000
2468.000000 -2908.000000 1485.000000
2468.000000 -2908.000000 1483.000000
2468.000000 -2908.000000 1481.000000
2468.000000 -2908.000000 1479.000000
2468.000000 -2908.000000 1477.000000
2468.000000 -2908.000000 1475.000000
2468.000000 -2908.000000 1473.000000
2468.000000 -2908.000000 1471.000000
2468.000000 -2908.000000 1469.000000
2468.000000 -2908.000000 1467.000000
2468.000000 -2908.000000 1465.000000
2468.000000 -2908.000000 1463.000000
2468.000000 -2908.000000 1461.000000
2468.000000 -2908.000000 1459.000000
2468.000000 -2908.000000 1457.000000
2468.000000 -2908.000000 1455.000000
2468.000000 -2908.000000 1453.000000
2468.000000 -2908.000000 1451.000000
2468.000000 -2908.000000 1449.000000
2468.000000 -2908.000000 1447.000000
2468.000000 -2908.000000 1445.000000
2468.000000 -2908.000000 1443.000000
2468.000000 -2908.000000 1441.000000
2468.000000 -2908.000000 1439.000000
2468.000000 -2908.000000 1437.000000
2468.000000 -2908.000000 1435.000000
2468.000000 -2908.000000 1433.000000
2468.000000 -2908.000000 1431.000000
2468.000000 -2908.000000 1429.000000
2468.000000 -2908.000000 1427.000000
2468.000000 -2908.000000 1425.000000
2468.000000 -2908.000000 1423.000000
2468.000000 -2908.000000 1421.000000
2468.000000 -2908.000000 1419.000000
2468.000000 -2908.000000 1417.000000
2468.000000 -2908.000000 1415.000000
2468.000000 -2908.000000 1413.000000
2468.000000 -2908.000000 1411.000000
2468.000000 -2908.000000 1409.000000
2468.000000 -2908.000000 1407.000000
2468.000000 -2908.000000 1405.000000
2468.000000 -2908.000000 1403.000000
2468.000000 -2908.000000 1401.000000
2468.000000 -2908.000000 1399.000000
2468.000000 -2908.000000 1397.000000
2468.000000 -2908.000000 1395.000000
2468.000000 -2908.000000 1393.000000
2468.000000 -2908.000000 1391.000000
2468.000000 -2908.000000 1389.000000
2468.000000 -2908.000000 1387.000000
2468.000000 -2908.000000 1385.000000
2468.000000 -2908.000000 1383.000000
2468.000000 -2908.000000 1381.000000
2468.000000 -2908.000000 1379.000000
2468.000000 -2908.000000 1377.000000
2468.000000 -2908.000000 1375.000000
2468.000000 -2908.000000 1373.000000
2468.000000 -2908.000000 1371.000000
2468.000000 -2908.000000 1369.000000
2468.000000 -2908.000000 1367.000000
2468.000000 -2908.000000 1365.000000
2468.000000 -2908.000000 1363.000000
2468.000000 -2908.000000 1361.000000
2468.000000 -2908.000000 1359.000000
2468.000000 -2908.000000 1357.000000
2468.000000 -2908.000000 1355.000000
2468.000000 -2908.000000 1353.000000
2468.000000 -2908.000000 1351.000000
2468.000000 -2908.000000 1349.000000
2468.000000 -2908.000000 1347.000000
2468.000000 -2908.000000 1345.000000
2468.000000 -2908.000000 1343.000000
2468.000000 -2908.000000 1341.000000
2468.000000 -2908.000000 1339.000000
2468.000000 -2908.000000 1337.000000
2468.000000 -2908.000000 1335.000000
2468.000000 -2908.000000 1333.000000
2468.000000 -2908.000000 1331.000000
2468.000000 -2908.000000 1329.000000
2468.000000 -2908.000000 1327.000000
2468.000000 -2908.000000 1325.000000
2468.000000 -2908.000000 1323.000000
2468.000000 -2908.000000 1321.000000
2468.000000 -2908.000000 1319.000000
2468.000000 -2908.000000 1317.000000
2468.000000 -2908.000000 1315.000000
2468.000000 -2908.000000 1313.000000
2468.000000 -2908.000000 1311.000000
2468.000000 -2908.000000 1309.000000
2468.000000 -2908.000000 1307.000000
2468.000000 -2908.000000 1305.000000
2468.000000 -2908.000000 1303.000000
2468.000000 -2908.000000 1301.000000
2468.000000 -2908.000000 1299.000000
2468.000000 -2908.000000 1297.000000
2468.000000 -2908.000000 1295.000000
2468.000000 -2908.000000 1293.000000
2468.000000 -2908.000000 1291.000000
2468.000000 -2908.000000 1289.000000
2468.000000 -2908.000000 1287.000000
2468.000000 -2908.000000 1285.000000
2468.000000 -2908.000000 1283.000000
2468.000000 -2908.000000 1281.000000
2468.000000 -2908.000000 1279.000000
2468.000000 -2908.000000 1277.000000
2468.000000 -2908.000000 1275.000000
2468.000000 -2908.000000 1273.000000
2468.000000 -2908.000000 1271.000000
2468.000000 -2908.000000 1269.000000
2468.000000 -2908.000000 1267.000000
2468.000000 -2908.000000 1265.000000
2468.000000 -2908.000000 1263.000000
2468.000000 -2908.000000 1261.000000
2468.000000 -2908.000000 1259.000000
2468.000000 -2908.000000 1257.000000
2468.000000 -2908.000000 1255.000000
2468.000000 -2908.000000 1252.000000
2466.653827 -2908.000000 1250.520872
2465.307655 -2908.000000 1249.041744
2463.961482 -2908.000000 1247.562616
2462.615310 -2908.000000 1246.083488
2461.269137 -2908.000000 1244.604360
2459.922964 -2908.000000 1243.125233
2458.576792 -2908.000000 1241.646105
2457.230619 -2908.000000 1240.166977
2455.884447 -2908.000000 1238.687849
2454.538274 -2908.000000 1237.208721
2453.192102 -2908.000000 1235.729593
2451.845929 -2908.000000 1234.250465
2450.499756 -2908.000000 1232.771337
2449.153584 -2908.000000 1231.292209
2447.807411 -2908.000000 1229.813081
2446.461239 -2908.000000 1228.333954
2445.115066 -2908.000000 1226.854826
2443.768893 -2908.000000 1225.375698
2442.422721 -2908.000000 1223.896570
2441.076548 -2908.000000 1222.417442
2439.730376 -2908.000000 1220.938314
2438.384203 -2908.000000 1219.459186
2437.038030 -2908.000000 1217.980058
2435.691858 -2908.000000 1216.500930
2434.345685 -2908.000000 1215.021802
2432.999513 -2908.000000 1213.542674
2431.653340 -2908.000000 1212.063547
2430.307168 -2908.000000 1210.584419
2428.960995 -2908.000000 1209.105291
2427.614822 -2908.000000 1207.626163
2426.268650 -2908.000000 1206.147035
2424.922477 -2908.000000 1204.667907
2423.576305 -2908.000000 1203.188779
2422.230132 -2908.000000 1201.709651
2420.883959 -2908.000000 1200.230523
2419.537787 -2908.000000 1198.751395
2418.191614 -2908.000000 1197.272267
2416.845442 -2908.000000 1195.793140
2415.499269 -2908.000000 1194.314012
2414.153096 -2908.000000 1192.834884
2412.806924 -2908.000000 1191.355756
2411.460751 -2908.000000 1189.876628
2410.114579 -2908.000000 1188.397500
2408.768406 -2908.000000 1186.918372
2407.422234 -2908.000000 1185.439244
2406.076061 -2908.000000 1183.960116
2404.729888 -2908.000000 1182.480988
2403.383716 -2908.000000 1181.001861
2402.037543 -2908.000000 1179.522733
2400.691371 -2908.000000 1178.043605
2399.345198 -2908.000000 1176.564477
2397.999025 -2908.000000 1175.085349
2396.652853 -2908.000000 1173.606221
2395.306680 -2908.000000 1172.127093
2393.960508 -2908.000000 1170.647965
2392.614335 -2908.000000 1169.168837
2391.268162 -2908.000000 1167.689709
2389.921990 -2908.000000 1166.210581
2388.575817 -2908.000000 1164.731454
2387.229645 -2908.000000 1163.252326
2385.883472 -2908.000000 1161.773198
2384.537300 -2908.000000 1160.294070
2383.191127 -2908.000000 1158.814942
2381.844954 -2908.000000 1157.335814
2380.498782 -2908.000000 1155.856686
2379.152609 -2908.000000 1154.377558
2377.806437 -2908.000000 1152.898430
2376.460264 -2908.000000 1151.419302
2375.114091 -2908.000000 1149.940174
2373.767919 -2908.000000 1148.461047
2372.421746 -2908.000000 1146.981919
2371.075574 -2908.000000 1145.502791
2369.729401 -2908.000000 1144.023663
2368.383228 -2908.000000 1142.544535
2367.037056 -2908.000000 1141.065407
2365.690883 -2908.000000 1139.586279
2364.344711 -2908.000000 1138.107151
2362.998538 -2908.000000 1136.628023
2361.652366 -2908.000000 1135.148895
2360.306193 -2908.000000 1133.669768
2358.960020 -2908.000000 1132.190640
2357.613848 -2908.000000 1130.711512
2356.267675 -2908.000000 1129.232384
2354.921503 -2908.000000 1127.753256
2353.575330 -2908.000000 1126.274128
2352.229157 -2908.000000 1124.795000
2350.882985 -2908.000000 1123.315872
2349.536812 -2908.000000 1121.836744
2348.190640 -2908.000000 1120.357616
2346.844467 -2908.000000 1118.878488
2345.498294 -2908.000000 1117.399361
2344.152122 -2908.000000 1115.920233
2342.805949 -2908.000000 1114.441105
2341.459777 -2908.000000 1112.961977
2340.113604 -2908.000000 1111.482849
2338.767432 -2908.000000 1110.003721
2337.421259 -2908.000000 1108.524593
2336.075086 -2908.000000 1107.045465
2334.728914 -2908.000000 1105.566337
2333.382741 -2908.000000 1104.087209
2332.036569 -2908.000000 1102.608082
2330.690396 -2908.000000 1101.128954
2329.344223 -2908.000000 1099.649826
2327.998051 -2908.000000 1098.170698
2326.651878 -2908.000000 1096.691570
2325.305706 -2908.000000 1095.212442
2323.959533 -2908.000000 1093.733314
2322.613360 -2908.000000 1092.254186
2321.267188 -2908.000000 1090.775058
2319.921015 -2908.000000 1089.295930
2318.574843 -2908.000000 1087.816802
2317.228670 -2908.000000 1086.337675
2315.882497 -2908.000000 1084.858547
2314.536325 -2908.000000 1083.379419
2313.190152 -2908.000000 1081.900291
2311.843980 -2908.000000 1080.421163
2310.497807 -2908.000000 1078.942035
2309.151635 -2908.000000 1077.462907
2307.805462 -2908.000000 1075.983779
2306.459289 -2908.000000 1074.504651
2305.113117 -2908.000000 1073.025523
2303.766944 -2908.000000 1071.546395
2302.420772 -2908.000000 1070.067268
2301.074599 -2908.000000 1068.588140
2299.728426 -2908.000000 1067.109012
2298.382254 -2908.000000 1065.629884
2297.036081 -2908.000000 1064.150756
2295.689909 -2908.000000 1062.671628
2294.343736 -2908.000000 1061.192500
2292.997563 -2908.000000 1059.713372
2291.651391 -2908.000000 1058.234244
2290.305218 -2908.000000 1056.755116
2288.959046 -2908.000000 1055.275989
2287.612873 -2908.000000 1053.796861
2286.266701 -2908.000000 1052.317733
2284.920528 -2908.000000 1050.838605
2283.574355 -2908.000000 1049.359477
2282.228183 -2908.000000 1047.880349
2280.882010 -2908.000000 1046.401221
2279.535838 -2908.000000 1044.922093
2278.189665 -2908.000000 1043.442965
2276.843492 -2908.000000 1041.963837
2275.497320 -2908.000000 1040.484709
2274.151147 -2908.000000 1039.005582
2272.804975 -2908.000000 1037.526454
2271.458802 -2908.000000 1036.047326
2270.112629 -2908.000000 1034.568198
2268.766457 -2908.000000 1033.089070
2267.420284 -2908.000000 1031.609942
2266.074112 -2908.000000 1030.130814
2264.727939 -2908.000000 1028.651686
2263.381767 -2908.000000 1027.172558
2262.035594 -2908.000000 1025.693430
2260.689421 -2908.000000 1024.214302
2259.343249 -2908.000000 1022.735175
2257.997076 -2908.000000 1021.256047
2256.650904 -2908.000000 1019.776919
2255.304731 -2908.000000 1018.297791
2253.958558 -2908.000000 1016.818663
2252.612386 -2908.000000 1015.339535
2251.266213 -2908.000000 1013.860407
2249.920041 -2908.000000 1012.381279
2248.573868 -2908.000000 1010.902151
2247.227695 -2908.000000 1009.423023
2245.881523 -2908.000000 1007.943896
2244.535350 -2908.000000 1006.464768
2243.189178 -2908.000000 1004.985640
2241.843005 -2908.000000 1003.506512
2240.496833 -2908.000000 1002.027384
2239.150660 -2908.000000 1000.548256
2237.804487 -2908.000000 999.069128
2236.458315 -2908.000000 997.590000
2235.112142 -2908.000000 996.110872
2233.765970 -2908.000000 994.631744
2232.419797 -2908.000000 993.152616
2231.073624 -2908.000000 991.673489
2229.727452 -2908.000000 990.194361
2228.381279 -2908.000000 988.715233
2227.035107 -2908.000000 987.236105
2225.688934 -2908.000000 985.756977
2224.342761 -2908.000000 984.277849
2222.996589 -2908.000000 982.798721
2221.650416 -2908.000000 981.319593
2220.304244 -2908.000000 979.840465
2218.958071 -2908.000000 978.361337
2217.611899 -2908.000000 976.882210
2216.265726 -2908.000000 975.403082
2214.919553 -2908.000000 973.923954
2213.573381 -2908.000000 972.444826
2212.227208 -2908.000000 970.965698
2210.881036 -2908.000000 969.486570
2209.534863 -2908.000000 968.007442
2208.188690 -2908.000000 966.528314
2206.842518 -2908.000000 965.049186
2205.496345 -2908.000000 963.570058
2204.150173 -2908.000000 962.090930
2202.804000 -2908.000000 960.611803
2201.457827 -2908.000000 959.132675
2200.111655 -2908.000000 957.653547
2198.765482 -2908.000000 956.174419
2197.419310 -2908.000000 954.695291
2196.073137 -2908.000000 953.216163
2194.726965 -2908.000000 951.737035
2193.380792 -2908.000000 950.257907
2192.034619 -2908.000000 948.778779
2190.688447 -2908.000000 947.299651
2189.342274 -2908.000000 945.820523
2187.996102 -2908.000000 944.341396
2186.649929 -2908.000000 942.862268
2185.303756 -2908.000000 941.383140
2183.957584 -2908.000000 939.904012
2182.611411 -2908.000000 938.424884
2181.265239 -2908.000000 936.945756
2179.919066 -2908.000000 935.466628
2178.572893 -2908.000000 933.987500
2177.226721 -2908.000000 932.508372
2175.880548 -2908.000000 931.029244
2174.534376 -2908.000000 929.550117
2173.188203 -2908.000000 928.070989
2171.842031 -2908.000000 926.591861
2170.495858 -2908.000000 925.112733
2169.149685 -2908.000000 923.633605
2167.803513 -2908.000000 922.154477
2166.457340 -2908.000000 920.675349
2165.111168 -2908.000000 919.196221
2163.764995 -2908.000000 917.717093
2162.418822 -2908.000000 916.237965
2161.072650 -2908.000000 914.758837
2159.726477 -2908.000000 913.279710
2158.380305 -2908.000000 911.800582
2157.034132 -2908.000000 910.321454
2155.687959 -2908.000000 908.842326
2154.341787 -2908.000000 907.363198
2152.995614 -2908.000000 905.884070
2151.649442 -2908.000000 904.404942
2150.303269 -2908.000000 902.925814
2148.957097 -2908.000000 901.446686
2147.610924 -2908.000000 899.967558
2146.264751 -2908.000000 898.488430
2144.000000 -2908.000000 896.000000
2143.299672 -2908.000000 894.126623
2142.599344 -2908.000000 892.253246
2141.899017 -2908.000000 890.379869
2141.198689 -2908.000000 888.506492
2140.498361 -2908.000000 886.633116
2139.798033 -2908.000000 884.759739
2139.097705 -2908.000000 882.886362
2138.397378 -2908.000000 881.012985
2137.697050 -2908.000000 879.139608
2136.996722 -2908.000000 877.266231
2136.296394 -2908.000000 875.392854
2135.596066 -2908.000000 873.519477
2134.895738 -2908.000000 871.646100
2134.195411 -2908.000000 869.772724
2133.495083 -2908.000000 867.899347
2132.794755 -2908.000000 866.025970
2132.094427 -2908.000000 864.152593
2131.394099 -2908.000000 862.279216
2130.693772 -2908.000000 860.405839
2129.993444 -2908.000000 858.532462
2129.293116 -2908.000000 856.659085
2128.592788 -2908.000000 854.785708
2127.892460 -2908.000000 852.912332
2127.192133 -2908.000000 851.038955
2126.491805 -2908.000000 849.165578
2125.791477 -2908.000000 847.292201
2125.091149 -2908.000000 845.418824
2124.390821 -2908.000000 843.545447
2123.690494 -2908.000000 841.672070
2122.990166 -2908.000000 839.798693
2122.289838 -2908.000000 837.925317
2121.589510 -2908.000000 836.051940
2120.889182 -2908.000000 834.178563
2120.188855 -2908.000000 832.305186
2119.488527 -2908.000000 830.431809
2118.788199 -2908.000000 828.558432
2118.087871 -2908.000000 826.685055
2117.387543 -2908.000000 824.811678
2116.687215 -2908.000000 822.938301
2115.986888 -2908.000000 821.064925
2115.286560 -2908.000000 819.191548
2114.586232 -2908.000000 817.318171
2113.885904 -2908.000000 815.444794
2113.185576 -2908.000000 813.571417
2112.485249 -2908.000000 811.698040
2111.784921 -2908.000000 809.824663
2111.084593 -2908.000000 807.951286
2110.384265 -2908.000000 806.077909
2109.683937 -2908.000000 804.204533
2108.983610 -2908.000000 802.331156
2108.283282 -2908.000000 800.457779
2107.582954 -2908.000000 798.584402
2106.882626 -2908.000000 796.711025
2106.182298 -2908.000000 794.837648
2105.481971 -2908.000000 792.964271
2104.781643 -2908.000000 791.090894
2104.081315 -2908.000000 789.217517
2103.380987 -2908.000000 787.344141
2102.680659 -2908.000000 785.470764
2101.980332 -2908.000000 783.597387
2101.280004 -2908.000000 781.724010
2100.579676 -2908.000000 779.850633
2099.879348 -2908.000000 777.977256
2099.179020 -2908.000000 776.103879
2098.478692 -2908.000000 774.230502
2097.778365 -2908.000000 772.357125
2097.078037 -2908.000000 770.483749
2096.377709 -2908.000000 768.610372
2095.677381 -2908.000000 766.736995
2094.977053 -2908.000000 764.863618
2094.276726 -2908.000000 762.990241
2093.576398 -2908.000000 761.116864
2092.876070 -2908.000000 759.243487
2092.175742 -2908.000000 757.370110
2091.475414 -2908.000000 755.496733
2090.775087 -2908.000000 753.623357
2090.074759 -2908.000000 751.749980
2089.374431 -2908.000000 749.876603
2088.674103 -2908.000000 748.003226
2087.973775 -2908.000000 746.129849
2087.273448 -2908.000000 744.256472
2086.573120 -2908.000000 742.383095
2085.872792 -2908.000000 740.509718
2085.172464 -2908.000000 738.636341
2084.472136 -2908.000000 736.762965
2083.771808 -2908.000000 734.889588
2083.071481 -2908.000000 733.016211
2082.371153 -2908.000000 731.142834
2081.670825 -2908.000000 729.269457
2080.970497 -2908.000000 727.396080
2080.270169 -2908.000000 725.522703
2079.569842 -2908.000000 723.649326
2078.869514 -2908.000000 721.775950
2078.169186 -2908.000000 719.902573
2077.468858 -2908.000000 718.029196
2076.768530 -2908.000000 716.155819
2076.068203 -2908.000000 714.282442
2075.367875 -2908.000000 712.409065
2074.667547 -2908.000000 710.535688
2073.967219 -2908.000000 708.662311
2073.266891 -2908.000000 706.788934
2072.566564 -2908.000000 704.915558
2071.866236 -2908.000000 703.042181
2071.165908 -2908.000000 701.168804
2070.465580 -2908.000000 699.295427
2069.765252 -2908.000000 697.422050
2069.064925 -2908.000000 695.548673
2068.364597 -2908.000000 693.675296
2067.664269 -2908.000000 691.801919
2066.963941 -2908.000000 689.928542
2066.263613 -2908.000000 688.055166
2065.563285 -2908.000000 686.181789
2064.862958 -2908.000000 684.308412
2064.162630 -2908.000000 682.435035
2063.462302 -2908.000000 680.561658
2062.761974 -2908.000000 678.688281
2062.061646 -2908.000000 676.814904
2061.361319 -2908.000000 674.941527
2060.660991 -2908.000000 673.068150
2059.960663 -2908.000000 671.194774
2059.260335 -2908.000000 669.321397
2058.560007 -2908.000000 667.448020
2057.859680 -2908.000000 665.574643
2057.159352 -2908.000000 663.701266
2056.459024 -2908.000000 661.827889
2055.758696 -2908.000000 659.954512
2055.058368 -2908.000000 658.081135
2054.358041 -2908.000000 656.207758
2053.657713 -2908.000000 654.334382
2052.957385 -2908.000000 652.461005
2052.257057 -2908.000000 650.587628
2051.556729 -2908.000000 648.714251
2050.856402 -2908.000000 646.840874
2050.156074 -2908.000000 644.967497
2049.455746 -2908.000000 643.094120
2048.755418 -2908.000000 641.220743
2048.055090 -2908.000000 639.347366
2047.354762 -2908.000000 637.473990
2046.654435 -2908.000000 635.600613
2045.954107 -2908.000000 633.727236
2045.253779 -2908.000000 631.853859
2044.553451 -2908.000000 629.980482
2043.853123 -2908.000000 628.107105
2043.152796 -2908.000000 626.233728
2042.452468 -2908.000000 624.360351
2041.752140 -2908.000000 622.486974
2041.051812 -2908.000000 620.613598
2040.351484 -2908.000000 618.740221
2039.651157 -2908.000000 616.866844
2038.950829 -2908.000000 614.993467
2038.250501 -2908.000000 613.120090
2037.550173 -2908.000000 611.246713
2036.849845 -2908.000000 609.373336
2036.149518 -2908.000000 607.499959
2035.449190 -2908.000000 605.626583
2034.748862 -2908.000000 603.753206
2034.048534 -2908.000000 601.879829
2033.348206 -2908.000000 600.006452
2032.647878 -2908.000000 598.133075
2031.947551 -2908.000000 596.259698
2031.247223 -2908.000000 594.386321
2030.546895 -2908.000000 592.512944
2029.846567 -2908.000000 590.639567
2029.146239 -2908.000000 588.766191
2028.445912 -2908.000000 586.892814
2027.745584 -2908.000000 585.019437
2027.045256 -2908.000000 583.146060
2026.344928 -2908.000000 581.272683
2025.644600 -2908.000000 579.399306
2024.944273 -2908.000000 577.525929
2024.243945 -2908.000000 575.652552
2023.543617 -2908.000000 573.779175
2022.843289 -2908.000000 571.905799
2022.142961 -2908.000000 570.032422
2021.442634 -2908.000000 568.159045
2020.742306 -2908.000000 566.285668
2020.041978 -2908.000000 564.412291
2019.341650 -2908.000000 562.538914
2018.641322 -2908.000000 560.665537
2017.940995 -2908.000000 558.792160
2017.240667 -2908.000000 556.918783
2016.540339 -2908.000000 555.045407
2015.840011 -2908.000000 553.172030
2015.139683 -2908.000000 551.298653
2014.439355 -2908.000000 549.425276
2013.739028 -2908.000000 547.551899
2013.038700 -2908.000000 545.678522
2012.338372 -2908.000000 543.805145
2011.638044 -2908.000000 541.931768
2010.937716 -2908.000000 540.058391
2010.237389 -2908.000000 538.185015
2009.537061 -2908.000000 536.311638
2008.836733 -2908.000000 534.438261
2008.136405 -2908.000000 532.564884
2007.436077 -2908.000000 530.691507
2006.735750 -2908.000000 528.818130
2006.035422 -2908.000000 526.944753
2005.335094 -2908.000000 525.071376
2004.634766 -2908.000000 523.197999
2003.934438 -2908.000000 521.324623
2003.234111 -2908.000000 519.451246
2002.533783 -2908.000000 517.577869
2001.833455 -2908.000000 515.704492
2001.133127 -2908.000000 513.831115
2000.432799 -2908.000000 511.957738
1999.732472 -2908.000000 510.084361
1999.032144 -2908.000000 508.210984
1998.331816 -2908.000000 506.337607
1997.631488 -2908.000000 504.464231
1996.931160 -2908.000000 502.590854
1996.230832 -2908.000000 500.717477
1995.530505 -2908.000000 498.844100
1994.830177 -2908.000000 496.970723
1994.129849 -2908.000000 495.097346
1993.429521 -2908.000000 493.223969
1992.729193 -2908.000000 491.350592
1992.028866 -2908.000000 489.477216
1991.328538 -2908.000000 487.603839
1990.628210 -2908.000000 485.730462
1989.927882 -2908.000000 483.857085
1989.227554 -2908.000000 481.983708
1988.527227 -2908.000000 480.110331
1987.826899 -2908.000000 478.236954
1987.126571 -2908.000000 476.363577
1986.426243 -2908.000000 474.490200
1985.725915 -2908.000000 472.616824
1985.025588 -2908.000000 470.743447
1984.000000 -2908.000000 468.000000
1982.050386 -2908.000000 467.553902
1980.100771 -2908.000000 467.107804
1978.151157 -2908.000000 466.661705
1976.201542 -2908.000000 466.215607
1974.251928 -2908.000000 465.769509
1972.302313 -2908.000000 465.323411
1970.352699 -2908.000000 464.877312
1968.403085 -2908.000000 464.431214
1966.453470 -2908.000000 463.985116
1964.503856 -2908.000000 463.539018
1962.554241 -2908.000000 463.092920
1960.604627 -2908.000000 462.646821
1958.655013 -2908.000000 462.200723
1956.705398 -2908.000000 461.754625
1954.755784 -2908.000000 461.308527
1952.806169 -2908.000000 460.862429
1950.856555 -2908.000000 460.416330
1948.906940 -2908.000000 459.970232
1946.957326 -2908.000000 459.524134
1945.007712 -2908.000000 459.078036
1943.058097 -2908.000000 458.631937
1941.108483 -2908.000000 458.185839
1939.158868 -2908.000000 457.739741
1937.209254 -2908.000000 457.293643
1935.259640 -2908.000000 456.847545
1933.310025 -2908.000000 456.401446
1931.360411 -2908.000000 455.955348
1929.410796 -2908.000000 455.509250
1927.461182 -2908.000000 455.063152
1925.511567 -2908.000000 454.617054
1923.561953 -2908.000000 454.170955
1921.612339 -2908.000000 453.724857
1919.662724 -2908.000000 453.278759
1917.713110 -2908.000000 452.832661
1915.763495 -2908.000000 452.386562
1913.813881 -2908.000000 451.940464
1911.864266 -2908.000000 451.494366
1909.914652 -2908.000000 451.048268
1907.965038 -2908.000000 450.602170
1906.015423 -2908.000000 450.156071
1904.065809 -2908.000000 449.709973
1902.116194 -2908.000000 449.263875
1900.166580 -2908.000000 448.817777
1898.216966 -2908.000000 448.371679
1896.267351 -2908.000000 447.925580
1894.317737 -2908.000000 447.479482
1892.368122 -2908.000000 447.033384
1890.418508 -2908.000000 446.587286
1888.468893 -2908.000000 446.141187
1886.519279 -2908.000000 445.695089
1884.569665 -2908.000000 445.248991
1882.620050 -2908.000000 444.802893
1880.670436 -2908.000000 444.356795
1878.720821 -2908.000000 443.910696
1876.771207 -2908.000000 443.464598
1874.821593 -2908.000000 443.018500
1872.871978 -2908.000000 442.572402
1870.922364 -2908.000000 442.126304
1868.972749 -2908.000000 441.680205
1867.023135 -2908.000000 441.234107
1865.073520 -2908.000000 440.788009
1863.123906 -2908.000000 440.341911
1861.174292 -2908.000000 439.895812
1859.224677 -2908.000000 439.449714
1857.275063 -2908.000000 439.003616
1855.325448 -2908.000000 438.557518
1853.375834 -2908.000000 438.111420
1851.426220 -2908.000000 437.665321
1849.476605 -2908.000000 437.219223
1847.526991 -2908.000000 436.773125
1845.577376 -2908.000000 436.327027
1843.627762 -2908.000000 435.880929
1841.678147 -2908.000000 435.434830
1839.728533 -2908.000000 434.988732
1837.778919 -2908.000000 434.542634
1835.829304 -2908.000000 434.096536
1833.879690 -2908.000000 433.650437
1831.930075 -2908.000000 433.204339
1829.980461 -2908.000000 432.758241
1828.030846 -2908.000000 432.312143
1826.081232 -2908.000000 431.866045
1824.131618 -2908.000000 431.419946
1822.182003 -2908.000000 430.973848
1820.232389 -2908.000000 430.527750
1818.282774 -2908.000000 430.081652
1816.333160 -2908.000000 429.635554
1814.383546 -2908.000000 429.189455
1812.433931 -2908.000000 428.743357
1810.484317 -2908.000000 428.297259
1808.534702 -2908.000000 427.851161
1806.585088 -2908.000000 427.405062
1804.635473 -2908.000000 426.958964
1802.685859 -2908.000000 426.512866
1800.736245 -2908.000000 426.066768
1798.786630 -2908.000000 425.620670
1796.837016 -2908.000000 425.174571
1794.887401 -2908.000000 424.728473
1792.937787 -2908.000000 424.282375
1790.988173 -2908.000000 423.836277
1789.038558 -2908.000000 423.390179
1787.088944 -2908.000000 422.944080
1785.139329 -2908.000000 422.497982
1783.189715 -2908.000000 422.051884
1781.240100 -2908.000000 421.605786
1779.290486 -2908.000000 421.159687
1777.340872 -2908.000000 420.713589
1775.391257 -2908.000000 420.267491
1773.441643 -2908.000000 419.821393
1771.492028 -2908.000000 419.375295
1769.542414 -2908.000000 418.929196
1767.592799 -2908.000000 418.483098
1765.643185 -2908.000000 418.037000
1763.693571 -2908.000000 417.590902
1761.743956 -2908.000000 417.144804
1759.794342 -2908.000000 416.698705
1757.844727 -2908.000000 416.252607
1755.895113 -2908.000000 415.806509
1753.945499 -2908.000000 415.360411
1751.995884 -2908.000000 414.914312
1750.046270 -2908.000000 414.468214
1748.096655 -2908.000000 414.022116
1746.147041 -2908.000000 413.576018
1744.197426 -2908.000000 413.129920
1742.247812 -2908.000000 412.683821
1740.298198 -2908.000000 412.237723
1738.348583 -2908.000000 411.791625
1736.398969 -2908.000000 411.345527
1734.449354 -2908.000000 410.899429
1732.499740 -2908.000000 410.453330
1730.550126 -2908.000000 410.007232
1728.600511 -2908.000000 409.561134
1726.650897 -2908.000000 409.115036
1724.701282 -2908.000000 408.668937
1722.751668 -2908.000000 408.222839
1720.802053 -2908.000000 407.776741
1718.852439 -2908.000000 407.330643
1716.902825 -2908.000000 406.884545
1714.953210 -2908.000000 406.438446
1713.003596 -2908.000000 405.992348
1711.053981 -2908.000000 405.546250
1709.104367 -2908.000000 405.100152
1707.154752 -2908.000000 404.654054
1705.205138 -2908.000000 404.207955
1703.255524 -2908.000000 403.761857
1701.305909 -2908.000000 403.315759
1699.356295 -2908.000000 402.869661
1697.406680 -2908.000000 402.423562
1695.457066 -2908.000000 401.977464
1693.507452 -2908.000000 401.531366
1691.557837 -2908.000000 401.085268
1689.608223 -2908.000000 400.639170
1687.658608 -2908.000000 400.193071
1685.708994 -2908.000000 399.746973
1683.759379 -2908.000000 399.300875
1681.809765 -2908.000000 398.854777
1679.860151 -2908.000000 398.408679
1677.910536 -2908.000000 397.962580
1675.960922 -2908.000000 397.516482
1674.011307 -2908.000000 397.070384
1672.061693 -2908.000000 396.624286
1670.112079 -2908.000000 396.178187
1668.162464 -2908.000000 395.732089
1666.212850 -2908.000000 395.285991
1664.263235 -2908.000000 394.839893
1662.313621 -2908.000000 394.393795
1660.364006 -2908.000000 393.947696
1658.414392 -2908.000000 393.501598
1656.464778 -2908.000000 393.055500
1654.515163 -2908.000000 392.609402
1652.565549 -2908.000000 392.163304
1650.615934 -2908.000000 391.717205
1648.666320 -2908.000000 391.271107
1646.716706 -2908.000000 390.825009
1644.767091 -2908.000000 390.378911
1642.817477 -2908.000000 389.932812
1640.867862 -2908.000000 389.486714
1638.918248 -2908.000000 389.040616
1636.968633 -2908.000000 388.594518
1635.019019 -2908.000000 388.148420
1633.069405 -2908.000000 387.702321
1631.119790 -2908.000000 387.256223
1629.170176 -2908.000000 386.810125
1627.220561 -2908.000000 386.364027
1625.270947 -2908.000000 385.917929
1623.321332 -2908.000000 385.471830
1621.371718 -2908.000000 385.025732
1619.422104 -2908.000000 384.579634
1617.472489 -2908.000000 384.133536
1615.522875 -2908.000000 383.687437
1613.573260 -2908.000000 383.241339
1611.623646 -2908.000000 382.795241
1609.674032 -2908.000000 382.349143
1607.724417 -2908.000000 381.903045
1605.774803 -2908.000000 381.456946
1603.825188 -2908.000000 381.010848
1601.875574 -2908.000000 380.564750
1599.925959 -2908.000000 380.118652
1597.976345 -2908.000000 379.672554
1596.026731 -2908.000000 379.226455
1594.077116 -2908.000000 378.780357
1592.127502 -2908.000000 378.334259
1590.177887 -2908.000000 377.888161
1588.228273 -2908.000000 377.442062
1586.278659 -2908.000000 376.995964
1584.329044 -2908.000000 376.549866
1582.379430 -2908.000000 376.103768
1580.429815 -2908.000000 375.657670
1578.480201 -2908.000000 375.211571
1576.530586 -2908.000000 374.765473
1574.580972 -2908.000000 374.319375
1572.631358 -2908.000000 373.873277
1570.681743 -2908.000000 373.427179
1568.732129 -2908.000000 372.981080
1566.782514 -2908.000000 372.534982
1564.832900 -2908.000000 372.088884
1562.883285 -2908.000000 371.642786
1560.933671 -2908.000000 371.196687
1558.984057 -2908.000000 370.750589
1557.034442 -2908.000000 370.304491
1555.084828 -2908.000000 369.858393
1553.135213 -2908.000000 369.412295
1551.185599 -2908.000000 368.966196
1549.235985 -2908.000000 368.520098
1547.286370 -2908.000000 368.074000
1545.336756 -2908.000000 367.627902
1543.387141 -2908.000000 367.181804
1541.437527 -2908.000000 366.735705
1539.487912 -2908.000000 366.289607
1537.538298 -2908.000000 365.843509
1535.588684 -2908.000000 365.397411
1533.639069 -2908.000000 364.951312
1531.689455 -2908.000000 364.505214
1529.739840 -2908.000000 364.059116
1527.790226 -2908.000000 363.613018
1525.840612 -2908.000000 363.166920
1523.890997 -2908.000000 362.720821
1521.941383 -2908.000000 362.274723
1519.991768 -2908.000000 361.828625
1518.042154 -2908.000000 361.382527
1516.092539 -2908.000000 360.936429
1514.142925 -2908.000000 360.490330
1512.193311 -2908.000000 360.044232
1510.243696 -2908.000000 359.598134
1508.294082 -2908.000000 359.152036
1506.344467 -2908.000000 358.705937
1504.394853 -2908.000000 358.259839
1502.445238 -2908.000000 357.813741
1500.495624 -2908.000000 357.367643
1498.546010 -2908.000000 356.921545
1496.596395 -2908.000000 356.475446
1494.646781 -2908.000000 356.029348
1492.697166 -2908.000000 355.583250
1490.747552 -2908.000000 355.137152
1488.797938 -2908.000000 354.691054
1486.848323 -2908.000000 354.244955
1484.898709 -2908.000000 353.798857
1482.949094 -2908.000000 353.352759
1480.999480 -2908.000000 352.906661
1479.049865 -2908.000000 352.460562
1477.100251 -2908.000000 352.014464
1475.150637 -2908.000000 351.568366
1473.201022 -2908.000000 351.122268
1471.251408 -2908.000000 350.676170
1469.301793 -2908.000000 350.230071
1467.352179 -2908.000000 349.783973
1465.402565 -2908.000000 349.337875
1463.452950 -2908.000000 348.891777
1461.503336 -2908.000000 348.445679
1459.553721 -2908.000000 347.999580
1457.604107 -2908.000000 347.553482
1455.654492 -2908.000000 347.107384
1453.704878 -2908.000000 346.661286
1451.755264 -2908.000000 346.215187
1449.805649 -2908.000000 345.769089
1447.856035 -2908.000000 345.322991
1445.906420 -2908.000000 344.876893
1443.956806 -2908.000000 344.430795
1442.007192 -2908.000000 343.984696
1440.057577 -2908.000000 343.538598
1438.107963 -2908.000000 343.092500
1436.158348 -2908.000000 342.646402
1434.208734 -2908.000000 342.200304
1432.259119 -2908.000000 341.754205
1430.309505 -2908.000000 341.308107
1428.359891 -2908.000000 340.862009
1426.410276 -2908.000000 340.415911
1424.460662 -2908.000000 339.969812
1422.511047 -2908.000000 339.523714
1420.561433 -2908.000000 339.077616
1418.611818 -2908.000000 338.631518
1416.662204 -2908.000000 338.185420
1414.712590 -2908.000000 337.739321
1412.762975 -2908.000000 337.293223
1410.813361 -2908.000000 336.847125
1408.863746 -2908.000000 336.401027
1406.914132 -2908.000000 335.954928
1404.964518 -2908.000000 335.508830
1403.014903 -2908.000000 335.062732
1401.065289 -2908.000000 334.616634
1399.115674 -2908.000000 334.170536
1397.166060 -2908.000000 333.724437
1395.216445 -2908.000000 333.278339
1393.266831 -2908.000000 332.832241
1391.317217 -2908.000000 332.386143
1389.367602 -2908.000000 331.940045
1387.417988 -2908.000000 331.493946
1385.468373 -2908.000000 331.047848
1383.518759 -2908.000000 330.601750
1381.569145 -2908.000000 330.155652
1379.619530 -2908.000000 329.709553
1377.669916 -2908.000000 329.263455
1375.720301 -2908.000000 328.817357
1373.770687 -2908.000000 328.371259
1371.821072 -2908.000000 327.925161
1369.871458 -2908.000000 327.479062
1367.921844 -2908.000000 327.032964
1365.972229 -2908.000000 326.586866
1364.022615 -2908.000000 326.140768
1362.073000 -2908.000000 325.694670
1360.123386 -2908.000000 325.248571
1358.173771 -2908.000000 324.802473
1356.224157 -2908.000000 324.356375
1354.274543 -2908.000000 323.910277
1352.324928 -2908.000000 323.464178
1350.375314 -2908.000000 323.018080
1348.425699 -2908.000000 322.571982
1346.476085 -2908.000000 322.125884
1344.526471 -2908.000000 321.679786
1342.576856 -2908.000000 321.233687
1340.627242 -2908.000000 320.787589
1338.677627 -2908.000000 320.341491
1336.728013 -2908.000000 319.895393
1334.778398 -2908.000000 319.449295
1332.828784 -2908.000000 319.003196
1330.879170 -2908.000000 318.557098
1328.929555 -2908.000000 318.111000
1326.979941 -2908.000000 317.664902
1325.030326 -2908.000000 317.218803
1323.080712 -2908.000000 316.772705
1321.131098 -2908.000000 316.326607
1319.181483 -2908.000000 315.880509
1317.231869 -2908.000000 315.434411
1315.282254 -2908.000000 314.988312
1313.332640 -2908.000000 314.542214
1311.383025 -2908.000000 314.096116
1309.433411 -2908.000000 313.650018
1307.483797 -2908.000000 313.203920
1305.534182 -2908.000000 312.757821
1303.584568 -2908.000000 312.311723
1301.634953 -2908.000000 311.865625
1299.685339 -2908.000000 311.419527
1297.735724 -2908.000000 310.973428
1295.786110 -2908.000000 310.527330
1293.836496 -2908.000000 310.081232
1291.886881 -2908.000000 309.635134
1289.937267 -2908.000000 309.189036
1287.987652 -2908.000000 308.742937
1286.038038 -2908.000000 308.296839
1284.088424 -2908.000000 307.850741
1282.138809 -2908.000000 307.404643
1280.189195 -2908.000000 306.958545
1278.239580 -2908.000000 306.512446
1276.289966 -2908.000000 306.066348
1274.340351 -2908.000000 305.620250
1272.390737 -2908.000000 305.174152
1270.441123 -2908.000000 304.728053
1268.491508 -2908.000000 304.281955
1266.541894 -2908.000000 303.835857
1264.592279 -2908.000000 303.389759
1262.642665 -2908.000000 302.943661
1260.693051 -2908.000000 302.497562
1258.743436 -2908.000000 302.051464
1256.793822 -2908.000000 301.605366
1254.844207 -2908.000000 301.159268
1252.894593 -2908.000000 300.713170
1250.944978 -2908.000000 300.267071
1248.995364 -2908.000000 299.820973
1247.045750 -2908.000000 299.374875
1245.096135 -2908.000000 298.928777
1243.146521 -2908.000000 298.482678
1241.196906 -2908.000000 298.036580
1239.247292 -2908.000000 297.590482
1237.297678 -2908.000000 297.144384
1235.348063 -2908.000000 296.698286
1233.398449 -2908.000000 296.252187
1231.448834 -2908.000000 295.806089
1229.499220 -2908.000000 295.359991
1227.549605 -2908.000000 294.913893
1225.599991 -2908.000000 294.467795
1223.650377 -2908.000000 294.021696
1221.700762 -2908.000000 293.575598
1219.751148 -2908.000000 293.129500
1217.801533 -2908.000000 292.683402
1215.851919 -2908.000000 292.237303
1213.902304 -2908.000000 291.791205
1211.952690 -2908.000000 291.345107
1210.003076 -2908.000000 290.899009
1208.053461 -2908.000000 290.452911
1206.103847 -2908.000000 290.006812
1204.154232 -2908.000000 289.560714
1202.204618 -2908.000000 289.114616
1200.255004 -2908.000000 288.668518
1198.305389 -2908.000000 288.222420
1196.355775 -2908.000000 287.776321
1194.406160 -2908.000000 287.330223
1192.456546 -2908.000000 286.884125
1190.506931 -2908.000000 286.438027
1188.557317 -2908.000000 285.991928
1186.607703 -2908.000000 285.545830
1184.658088 -2908.000000 285.099732
1182.708474 -2908.000000 284.653634
1180.758859 -2908.000000 284.207536
1178.809245 -2908.000000 283.761437
1176.859631 -2908.000000 283.315339
1174.910016 -2908.000000 282.869241
1172.960402 -2908.000000 282.423143
1171.010787 -2908.000000 281.977045
1169.061173 -2908.000000 281.530946
1167.111558 -2908.000000 281.084848
1165.161944 -2908.000000 280.638750
1163.212330 -2908.000000 280.192652
1161.262715 -2908.000000 279.746553
1159.313101 -2908.000000 279.300455
1157.363486 -2908.000000 278.854357
1155.413872 -2908.000000 278.408259
1153.464257 -2908.000000 277.962161
1151.514643 -2908.000000 277.516062
1149.565029 -2908.000000 277.069964
1147.615414 -2908.000000 276.623866
1145.665800 -2908.000000 276.177768
1143.716185 -2908.000000 275.731670
1141.766571 -2908.000000 275.285571
1139.816957 -2908.000000 274.839473
1137.867342 -2908.000000 274.393375
1135.917728 -2908.000000 273.947277
1133.968113 -2908.000000 273.501178
1132.018499 -2908.000000 273.055080
1130.068884 -2908.000000 272.608982
1128.119270 -2908.000000 272.162884
1126.169656 -2908.000000 271.716786
1124.220041 -2908.000000 271.270687
1122.270427 -2908.000000 270.824589
1120.320812 -2908.000000 270.378491
1118.371198 -2908.000000 269.932393
1116.421584 -2908.000000 269.486295
1114.471969 -2908.000000 269.040196
1112.522355 -2908.000000 268.594098
1110.572740 -2908.000000 268.148000
1108.623126 -2908.000000 267.701902
1106.673511 -2908.000000 267.255803
1104.723897 -2908.000000 266.809705
1102.774283 -2908.000000 266.363607
1100.824668 -2908.000000 265.917509
1098.875054 -2908.000000 265.471411
1096.925439 -2908.000000 265.025312
1094.975825 -2908.000000 264.579214
1093.026210 -2908.000000 264.133116
1091.076596 -2908.000000 263.687018
1089.126982 -2908.000000 263.240920
1087.177367 -2908.000000 262.794821
1085.227753 -2908.000000 262.348723
1083.278138 -2908.000000 261.902625
1081.328524 -2908.000000 261.456527
1079.378910 -2908.000000 261.010428
1077.429295 -2908.000000 260.564330
1075.479681 -2908.000000 260.118232
1073.530066 -2908.000000 259.672134
1071.580452 -2908.000000 259.226036
1069.630837 -2908.000000 258.779937
1067.681223 -2908.000000 258.333839
1065.731609 -2908.000000 257.887741
1063.781994 -2908.000000 257.441643
1061.832380 -2908.000000 256.995545
1059.882765 -2908.000000 256.549446
1057.933151 -2908.000000 256.103348
1055.983537 -2908.000000 255.657250
1054.033922 -2908.000000 255.211152
1052.084308 -2908.000000 254.765053
1050.134693 -2908.000000 254.318955
1048.185079 -2908.000000 253.872857
1046.235464 -2908.000000 253.426759
1044.285850 -2908.000000 252.980661
1042.336236 -2908.000000 252.534562
1040.000000 -2908.000000 252.000000
1038.154467 -2908.000000 251.229280
1036.308934 -2908.000000 250.458561
1034.463402 -2908.000000 249.687841
1032.617869 -2908.000000 248.917121
1030.772336 -2908.000000 248.146402
1028.926803 -2908.000000 247.375682
1027.081271 -2908.000000 246.604962
1025.235738 -2908.000000 245.834243
1023.390205 -2908.000000 245.063523
1021.544672 -2908.000000 244.292803
1019.699139 -2908.000000 243.522084
1017.853607 -2908.000000 242.751364
1016.008074 -2908.000000 241.980645
1014.162541 -2908.000000 241.209925
1012.317008 -2908.000000 240.439205
1010.471476 -2908.000000 239.668486
1008.625943 -2908.000000 238.897766
1006.780410 -2908.000000 238.127046
1004.934877 -2908.000000 237.356327
1003.089345 -2908.000000 236.585607
1001.243812 -2908.000000 235.814887
999.398279 -2908.000000 235.044168
997.552746 -2908.000000 234.273448
995.707213 -2908.000000 233.502728
993.861681 -2908.000000 232.732009
992.016148 -2908.000000 231.961289
990.170615 -2908.000000 231.190569
988.325082 -2908.000000 230.419850
986.479550 -2908.000000 229.649130
984.634017 -2908.000000 228.878410
982.788484 -2908.000000 228.107691
980.942951 -2908.000000 227.336971
979.097418 -2908.000000 226.566251
977.251886 -2908.000000 225.795532
975.406353 -2908.000000 225.024812
973.560820 -2908.000000 224.254093
971.715287 -2908.000000 223.483373
969.869755 -2908.000000 222.712653
968.024222 -2908.000000 221.941934
966.178689 -2908.000000 221.171214
964.333156 -2908.000000 220.400494
962.487624 -2908.000000 219.629775
960.642091 -2908.000000 218.859055
958.796558 -2908.000000 218.088335
956.951025 -2908.000000 217.317616
955.105492 -2908.000000 216.546896
953.259960 -2908.000000 215.776176
951.414427 -2908.000000 215.005457
949.568894 -2908.000000 214.234737
947.723361 -2908.000000 213.464017
945.877829 -2908.000000 212.693298
944.032296 -2908.000000 211.922578
942.186763 -2908.000000 211.151858
940.341230 -2908.000000 210.381139
938.495697 -2908.000000 209.610419
936.650165 -2908.000000 208.839699
934.804632 -2908.000000 208.068980
932.959099 -2908.000000 207.298260
931.113566 -2908.000000 206.527541
929.268034 -2908.000000 205.756821
927.422501 -2908.000000 204.986101
925.576968 -2908.000000 204.215382
923.731435 -2908.000000 203.444662
921.885903 -2908.000000 202.673942
920.040370 -2908.000000 201.903223
918.194837 -2908.000000 201.132503
916.349304 -2908.000000 200.361783
914.503771 -2908.000000 199.591064
912.658239 -2908.000000 198.820344
910.812706 -2908.000000 198.049624
908.967173 -2908.000000 197.278905
907.121640 -2908.000000 196.508185
905.276108 -2908.000000 195.737465
903.430575 -2908.000000 194.966746
901.585042 -2908.000000 194.196026
899.739509 -2908.000000 193.425306
897.893976 -2908.000000 192.654587
896.048444 -2908.000000 191.883867
894.202911 -2908.000000 191.113147
892.357378 -2908.000000 190.342428
890.511845 -2908.000000 189.571708
888.666313 -2908.000000 188.800988
886.820780 -2908.000000 188.030269
884.975247 -2908.000000 187.259549
883.129714 -2908.000000 186.488830
881.284181 -2908.000000 185.718110
879.438649 -2908.000000 184.947390
877.593116 -2908.000000 184.176671
875.747583 -2908.000000 183.405951
873.902050 -2908.000000 182.635231
872.056518 -2908.000000 181.864512
870.210985 -2908.000000 181.093792
868.365452 -2908.000000 180.323072
866.519919 -2908.000000 179.552353
864.674387 -2908.000000 178.781633
862.828854 -2908.000000 178.010913
860.983321 -2908.000000 177.240194
859.137788 -2908.000000 176.469474
857.292255 -2908.000000 175.698754
855.446723 -2908.000000 174.928035
853.601190 -2908.000000 174.157315
851.755657 -2908.000000 173.386595
849.910124 -2908.000000 172.615876
848.064592 -2908.000000 171.845156
846.219059 -2908.000000 171.074436
844.373526 -2908.000000 170.303717
842.527993 -2908.000000 169.532997
840.682460 -2908.000000 168.762278
838.836928 -2908.000000 167.991558
836.991395 -2908.000000 167.220838
835.145862 -2908.000000 166.450119
833.300329 -2908.000000 165.679399
831.454797 -2908.000000 164.908679
829.609264 -2908.000000 164.137960
827.763731 -2908.000000 163.367240
825.918198 -2908.000000 162.596520
824.072666 -2908.000000 161.825801
822.227133 -2908.000000 161.055081
820.381600 -2908.000000 160.284361
818.536067 -2908.000000 159.513642
816.690534 -2908.000000 158.742922
814.845002 -2908.000000 157.972202
812.999469 -2908.000000 157.201483
811.153936 -2908.000000 156.430763
