640.707899 -1583.292101 922.159832
640.468960 -1583.531040 924.131080
640.000000 -1584.000000 928.000000
638.886939 -1585.661407 928.028645
637.773878 -1587.322815 928.057290
636.660817 -1588.984222 928.085935
635.547756 -1590.645629 928.114580
634.434695 -1592.307037 928.143225
633.321633 -1593.968444 928.171870
632.208572 -1595.629852 928.200515
631.095511 -1597.291259 928.229160
629.982450 -1598.952666 928.257805
628.869389 -1600.614074 928.286450
627.756328 -1602.275481 928.315095
626.643267 -1603.936888 928.343739
625.530206 -1605.598296 928.372384
624.417145 -1607.259703 928.401029
623.304084 -1608.921111 928.429674
622.191022 -1610.582518 928.458319
621.077961 -1612.243925 928.486964
619.964900 -1613.905333 928.515609
618.851839 -1615.566740 928.544254
617.738778 -1617.228147 928.572899
616.625717 -1618.889555 928.601544
615.512656 -1620.550962 928.630189
614.399595 -1622.212370 928.658834
613.286534 -1623.873777 928.687479
612.173473 -1625.535184 928.716124
611.060411 -1627.196592 928.744769
609.947350 -1628.857999 928.773414
608.834289 -1630.519406 928.802059
607.721228 -1632.180814 928.830704
606.608167 -1633.842221 928.859349
605.495106 -1635.503629 928.887994
604.382045 -1637.165036 928.916639
603.268984 -1638.826443 928.945284
602.155923 -1640.487851 928.973928
601.042862 -1642.149258 929.002573
599.929800 -1643.810665 929.031218
598.816739 -1645.472073 929.059863
597.703678 -1647.133480 929.088508
596.590617 -1648.794888 929.117153
595.477556 -1650.456295 929.145798
594.364495 -1652.117702 929.174443
593.251434 -1653.779110 929.203088
592.138373 -1655.440517 929.231733
591.025312 -1657.101924 929.260378
589.912251 -1658.763332 929.289023
588.799190 -1660.424739 929.317668
587.686128 -1662.086147 929.346313
586.573067 -1663.747554 929.374958
585.460006 -1665.408961 929.403603
584.346945 -1667.070369 929.432248
583.233884 -1668.731776 929.460893
582.120823 -1670.393183 929.489538
581.007762 -1672.054591 929.518183
579.894701 -1673.715998 929.546828
578.781640 -1675.377406 929.575473
577.668579 -1677.038813 929.604117
576.555517 -1678.700220 929.632762
575.442456 -1680.361628 929.661407
574.329395 -1682.023035 929.690052
573.216334 -1683.684442 929.718697
572.103273 -1685.345850 929.747342
570.990212 -1687.007257 929.775987
569.877151 -1688.668665 929.804632
568.764090 -1690.330072 929.833277
567.651029 -1691.991479 929.861922
566.537968 -1693.652887 929.890567
565.424906 -1695.314294 929.919212
564.311845 -1696.975701 929.947857
563.198784 -1698.637109 929.976502
562.085723 -1700.298516 930.005147
560.972662 -1701.959924 930.033792
559.859601 -1703.621331 930.062437
558.746540 -1705.282738 930.091082
557.633479 -1706.944146 930.119727
556.520418 -1708.605553 930.148372
555.407357 -1710.266960 930.177017
554.294296 -1711.928368 930.205662
553.181234 -1713.589775 930.234306
552.068173 -1715.251182 930.262951
550.955112 -1716.912590 930.291596
549.842051 -1718.573997 930.320241
548.728990 -1720.235405 930.348886
547.615929 -1721.896812 930.377531
546.502868 -1723.558219 930.406176
545.389807 -1725.219627 930.434821
544.276746 -1726.881034 930.463466
543.163685 -1728.542441 930.492111
542.050623 -1730.203849 930.520756
540.937562 -1731.865256 930.549401
539.824501 -1733.526664 930.578046
538.711440 -1735.188071 930.606691
537.598379 -1736.849478 930.635336
536.485318 -1738.510886 930.663981
535.372257 -1740.172293 930.692626
534.259196 -1741.833700 930.721271
533.146135 -1743.495108 930.749916
532.033074 -1745.156515 930.778561
530.920012 -1746.817923 930.807206
529.806951 -1748.479330 930.835851
528.693890 -1750.140737 930.864495
527.580829 -1751.802145 930.893140
526.467768 -1753.463552 930.921785
525.354707 -1755.124959 930.950430
524.241646 -1756.786367 930.979075
523.128585 -1758.447774 931.007720
522.015524 -1760.109182 931.036365
520.902463 -1761.770589 931.065010
519.789401 -1763.431996 931.093655
518.676340 -1765.093404 931.122300
517.563279 -1766.754811 931.150945
516.450218 -1768.416218 931.179590
515.337157 -1770.077626 931.208235
514.224096 -1771.739033 931.236880
513.111035 -1773.400441 931.265525
511.997974 -1775.061848 931.294170
510.884913 -1776.723255 931.322815
509.771852 -1778.384663 931.351460
508.658791 -1780.046070 931.380105
507.545729 -1781.707477 931.408750
506.432668 -1783.368885 931.437395
505.319607 -1785.030292 931.466040
504.206546 -1786.691700 931.494684
503.093485 -1788.353107 931.523329
501.980424 -1790.014514 931.551974
500.867363 -1791.675922 931.580619
499.754302 -1793.337329 931.609264
498.641241 -1794.998736 931.637909
497.528180 -1796.660144 931.666554
496.415118 -1798.321551 931.695199
495.302057 -1799.982959 931.723844
494.188996 -1801.644366 931.752489
493.075935 -1803.305773 931.781134
491.962874 -1804.967181 931.809779
490.849813 -1806.628588 931.838424
489.736752 -1808.289995 931.867069
488.623691 -1809.951403 931.895714
487.510630 -1811.612810 931.924359
486.397569 -1813.274218 931.953004
485.284507 -1814.935625 931.981649
484.171446 -1816.597032 932.010294
483.058385 -1818.258440 932.038939
481.945324 -1819.919847 932.067584
480.832263 -1821.581254 932.096229
479.719202 -1823.242662 932.124873
478.606141 -1824.904069 932.153518
477.493080 -1826.565477 932.182163
476.380019 -1828.226884 932.210808
475.266958 -1829.888291 932.239453
474.153896 -1831.549699 932.268098
473.040835 -1833.211106 932.296743
471.927774 -1834.872513 932.325388
470.814713 -1836.533921 932.354033
469.701652 -1838.195328 932.382678
468.588591 -1839.856735 932.411323
467.475530 -1841.518143 932.439968
466.362469 -1843.179550 932.468613
465.249408 -1844.840958 932.497258
464.136347 -1846.502365 932.525903
463.023286 -1848.163772 932.554548
461.910224 -1849.825180 932.583193
460.797163 -1851.486587 932.611838
459.684102 -1853.147994 932.640483
458.571041 -1854.809402 932.669128
457.457980 -1856.470809 932.697773
456.344919 -1858.132217 932.726418
455.231858 -1859.793624 932.755062
454.118797 -1861.455031 932.783707
453.005736 -1863.116439 932.812352
451.892675 -1864.777846 932.840997
450.779613 -1866.439253 932.869642
449.666552 -1868.100661 932.898287
448.553491 -1869.762068 932.926932
447.440430 -1871.423476 932.955577
446.327369 -1873.084883 932.984222
445.214308 -1874.746290 933.012867
444.101247 -1876.407698 933.041512
442.988186 -1878.069105 933.070157
441.875125 -1879.730512 933.098802
440.762064 -1881.391920 933.127447
439.649002 -1883.053327 933.156092
438.535941 -1884.714735 933.184737
437.422880 -1886.376142 933.213382
436.309819 -1888.037549 933.242027
435.196758 -1889.698957 933.270672
434.083697 -1891.360364 933.299317
432.970636 -1893.021771 933.327962
431.857575 -1894.683179 933.356607
430.744514 -1896.344586 933.385251
429.631453 -1898.005994 933.413896
428.518391 -1899.667401 933.442541
427.405330 -1901.328808 933.471186
426.292269 -1902.990216 933.499831
425.179208 -1904.651623 933.528476
424.066147 -1906.313030 933.557121
422.953086 -1907.974438 933.585766
421.840025 -1909.635845 933.614411
420.726964 -1911.297253 933.643056
419.613903 -1912.958660 933.671701
418.500842 -1914.620067 933.700346
417.387781 -1916.281475 933.728991
416.274719 -1917.942882 933.757636
415.161658 -1919.604289 933.786281
414.048597 -1921.265697 933.814926
412.935536 -1922.927104 933.843571
411.822475 -1924.588512 933.872216
410.709414 -1926.249919 933.900861
409.596353 -1927.911326 933.929506
408.483292 -1929.572734 933.958151
407.370231 -1931.234141 933.986796
406.257170 -1932.895548 934.015440
405.144108 -1934.556956 934.044085
404.031047 -1936.218363 934.072730
402.917986 -1937.879771 934.101375
401.804925 -1939.541178 934.130020
400.691864 -1941.202585 934.158665
399.578803 -1942.863993 934.187310
398.465742 -1944.525400 934.215955
397.352681 -1946.186807 934.244600
396.239620 -1947.848215 934.273245
395.126559 -1949.509622 934.301890
394.013497 -1951.171029 934.330535
392.900436 -1952.832437 934.359180
391.787375 -1954.493844 934.387825
390.674314 -1956.155252 934.416470
389.561253 -1957.816659 934.445115
388.448192 -1959.478066 934.473760
387.335131 -1961.139474 934.502405
386.222070 -1962.800881 934.531050
385.109009 -1964.462288 934.559695
383.995948 -1966.123696 934.588340
382.882887 -1967.785103 934.616985
381.769825 -1969.446511 934.645629
380.656764 -1971.107918 934.674274
379.543703 -1972.769325 934.702919
378.430642 -1974.430733 934.731564
377.317581 -1976.092140 934.760209
376.204520 -1977.753547 934.788854
375.091459 -1979.414955 934.817499
373.978398 -1981.076362 934.846144
372.865337 -1982.737770 934.874789
371.752276 -1984.399177 934.903434
370.639214 -1986.060584 934.932079
369.526153 -1987.721992 934.960724
368.413092 -1989.383399 934.989369
367.300031 -1991.044806 935.018014
366.186970 -1992.706214 935.046659
365.073909 -1994.367621 935.075304
363.960848 -1996.029029 935.103949
362.847787 -1997.690436 935.132594
361.734726 -1999.351843 935.161239
360.621665 -2001.013251 935.189884
359.508603 -2002.674658 935.218529
358.395542 -2004.336065 935.247174
357.282481 -2005.997473 935.275818
356.169420 -2007.658880 935.304463
355.056359 -2009.320288 935.333108
353.943298 -2010.981695 935.361753
352.830237 -2012.643102 935.390398
351.717176 -2014.304510 935.419043
350.604115 -2015.965917 935.447688
349.491054 -2017.627324 935.476333
348.377992 -2019.288732 935.504978
347.264931 -2020.950139 935.533623
346.151870 -2022.611547 935.562268
345.038809 -2024.272954 935.590913
343.925748 -2025.934361 935.619558
342.812687 -2027.595769 935.648203
341.699626 -2029.257176 935.676848
340.586565 -2030.918583 935.705493
339.473504 -2032.579991 935.734138
338.360443 -2034.241398 935.762783
337.247382 -2035.902806 935.791428
336.134320 -2037.564213 935.820073
335.021259 -2039.225620 935.848718
333.908198 -2040.887028 935.877363
332.795137 -2042.548435 935.906008
331.682076 -2044.209842 935.934652
330.569015 -2045.871250 935.963297
329.142857 -2048.000000 936.000000
330.354944 -2048.000591 937.590863
331.567030 -2048.001181 939.181727
332.779116 -2048.001772 940.772590
333.991203 -2048.002363 942.363453
335.203289 -2048.002954 943.954317
336.415375 -2048.003544 945.545180
337.627462 -2048.004135 947.136044
338.839548 -2048.004726 948.726907
340.051635 -2048.005316 950.317770
341.263721 -2048.005907 951.908634
342.475807 -2048.006498 953.499497
343.687894 -2048.007089 955.090360
344.899980 -2048.007679 956.681224
346.112066 -2048.008270 958.272087
347.428571 -2048.008912 960.000000
349.414606 -2048.008994 960.235936
351.400641 -2048.009077 960.471872
353.386676 -2048.009159 960.707808
355.372711 -2048.009242 960.943744
357.358745 -2048.009324 961.179680
359.344780 -2048.009407 961.415616
361.330815 -2048.009489 961.651552
363.316850 -2048.009572 961.887488
365.302885 -2048.009654 962.123424
367.288919 -2048.009737 962.359360
369.274954 -2048.009819 962.595296
371.260989 -2048.009902 962.831232
373.247024 -2048.009984 963.067168
375.233059 -2048.010067 963.303104
377.219093 -2048.010150 963.539040
379.205128 -2048.010232 963.774976
381.191163 -2048.010315 964.010912
383.177198 -2048.010397 964.246847
385.163233 -2048.010480 964.482783
387.149267 -2048.010562 964.718719
389.135302 -2048.010645 964.954655
391.121337 -2048.010727 965.190591
393.107372 -2048.010810 965.426527
395.093407 -2048.010892 965.662463
397.079441 -2048.010975 965.898399
399.065476 -2048.011057 966.134335
401.051511 -2048.011140 966.370271
403.037546 -2048.011222 966.606207
405.023581 -2048.011305 966.842143
407.009615 -2048.011387 967.078079
408.995650 -2048.011470 967.314015
410.981685 -2048.011552 967.549951
412.967720 -2048.011635 967.785887
414.953754 -2048.011718 968.021823
416.939789 -2048.011800 968.257759
418.925824 -2048.011883 968.493695
420.911859 -2048.011965 968.729631
422.897894 -2048.012048 968.965567
424.883928 -2048.012130 969.201503
426.869963 -2048.012213 969.437439
428.855998 -2048.012295 969.673375
430.842033 -2048.012378 969.909311
432.828068 -2048.012460 970.145247
434.814102 -2048.012543 970.381183
436.800137 -2048.012625 970.617119
438.786172 -2048.012708 970.853055
440.772207 -2048.012790 971.088991
442.758242 -2048.012873 971.324927
444.744276 -2048.012955 971.560863
446.730311 -2048.013038 971.796799
448.716346 -2048.013121 972.032735
450.702381 -2048.013203 972.268670
452.688416 -2048.013286 972.504606
454.674450 -2048.013368 972.740542
456.660485 -2048.013451 972.976478
458.646520 -2048.013533 973.212414
460.632555 -2048.013616 973.448350
462.618590 -2048.013698 973.684286
464.604624 -2048.013781 973.920222
466.590659 -2048.013863 974.156158
468.576694 -2048.013946 974.392094
470.562729 -2048.014028 974.628030
472.548764 -2048.014111 974.863966
474.534798 -2048.014193 975.099902
476.520833 -2048.014276 975.335838
478.506868 -2048.014358 975.571774
480.492903 -2048.014441 975.807710
482.478938 -2048.014523 976.043646
484.464972 -2048.014606 976.279582
486.451007 -2048.014689 976.515518
488.437042 -2048.014771 976.751454
490.423077 -2048.014854 976.987390
492.409112 -2048.014936 977.223326
494.395146 -2048.015019 977.459262
496.381181 -2048.015101 977.695198
498.367216 -2048.015184 977.931134
500.353251 -2048.015266 978.167070
502.339286 -2048.015349 978.403006
504.325320 -2048.015431 978.638942
506.311355 -2048.015514 978.874878
508.297390 -2048.015596 979.110814
510.283425 -2048.015679 979.346750
512.269459 -2048.015761 979.582686
514.255494 -2048.015844 979.818622
516.241529 -2048.015926 980.054558
518.227564 -2048.016009 980.290494
520.213599 -2048.016091 980.526429
522.199633 -2048.016174 980.762365
524.185668 -2048.016257 980.998301
526.171703 -2048.016339 981.234237
528.157738 -2048.016422 981.470173
530.143773 -2048.016504 981.706109
532.129807 -2048.016587 981.942045
534.115842 -2048.016669 982.177981
536.101877 -2048.016752 982.413917
538.087912 -2048.016834 982.649853
540.073947 -2048.016917 982.885789
542.059981 -2048.016999 983.121725
544.046016 -2048.017082 983.357661
546.032051 -2048.017164 983.593597
548.018086 -2048.017247 983.829533
550.004121 -2048.017329 984.065469
551.990155 -2048.017412 984.301405
553.976190 -2048.017494 984.537341
555.962225 -2048.017577 984.773277
557.948260 -2048.017660 985.009213
559.934295 -2048.017742 985.245149
561.920329 -2048.017825 985.481085
563.906364 -2048.017907 985.717021
565.892399 -2048.017990 985.952957
567.878434 -2048.018072 986.188893
569.864469 -2048.018155 986.424829
571.850503 -2048.018237 986.660765
573.836538 -2048.018320 986.896701
575.822573 -2048.018402 987.132637
577.808608 -2048.018485 987.368573
579.794643 -2048.018567 987.604509
583.123765 -2048.018706 988.000000
582.171912 -2048.130985 989.755383
581.220060 -2048.243263 991.510767
580.268208 -2048.355542 993.266150
579.316356 -2048.467821 995.021533
578.364503 -2048.580100 996.776917
577.412651 -2048.692379 998.532300
576.460799 -2048.804658 1000.287683
575.508946 -2048.916937 1002.043067
574.557094 -2049.029215 1003.798450
573.605242 -2049.141494 1005.553833
572.653390 -2049.253773 1007.309217
571.701537 -2049.366052 1009.064600
570.749685 -2049.478331 1010.819983
569.797833 -2049.590610 1012.575367
568.845980 -2049.702889 1014.330750
567.894128 -2049.815167 1016.086134
566.942276 -2049.927446 1017.841517
565.990424 -2050.039725 1019.596900
565.038571 -2050.152004 1021.352284
564.086719 -2050.264283 1023.107667
563.134867 -2050.376562 1024.863050
562.183015 -2050.488841 1026.618434
561.231162 -2050.601119 1028.373817
560.279310 -2050.713398 1030.129200
559.327458 -2050.825677 1031.884584
558.375605 -2050.937956 1033.639967
557.423753 -2051.050235 1035.395350
556.471901 -2051.162514 1037.150734
555.520049 -2051.274793 1038.906117
554.568196 -2051.387072 1040.661500
553.616344 -2051.499350 1042.416884
552.664492 -2051.611629 1044.172267
551.712639 -2051.723908 1045.927650
550.760787 -2051.836187 1047.683034
549.808935 -2051.948466 1049.438417
548.857083 -2052.060745 1051.193800
547.905230 -2052.173024 1052.949184
546.953378 -2052.285302 1054.704567
546.001526 -2052.397581 1056.459950
545.049673 -2052.509860 1058.215334
544.097821 -2052.622139 1059.970717
543.145969 -2052.734418 1061.726101
542.194117 -2052.846697 1063.481484
541.242264 -2052.958976 1065.236867
540.290412 -2053.071254 1066.992251
539.338560 -2053.183533 1068.747634
538.386707 -2053.295812 1070.503017
537.434855 -2053.408091 1072.258401
536.483003 -2053.520370 1074.013784
535.531151 -2053.632649 1075.769167
534.579298 -2053.744928 1077.524551
533.627446 -2053.857207 1079.279934
532.675594 -2053.969485 1081.035317
531.723741 -2054.081764 1082.790701
530.771889 -2054.194043 1084.546084
529.820037 -2054.306322 1086.301467
528.868185 -2054.418601 1088.056851
527.916332 -2054.530880 1089.812234
526.964480 -2054.643159 1091.567617
526.012628 -2054.755437 1093.323001
525.060776 -2054.867716 1095.078384
524.108923 -2054.979995 1096.833767
523.157071 -2055.092274 1098.589151
522.205219 -2055.204553 1100.344534
521.253366 -2055.316832 1102.099917
520.301514 -2055.429111 1103.855301
519.349662 -2055.541389 1105.610684
518.397810 -2055.653668 1107.366067
517.445957 -2055.765947 1109.121451
516.494105 -2055.878226 1110.876834
515.542253 -2055.990505 1112.632218
514.590400 -2056.102784 1114.387601
513.638548 -2056.215063 1116.142984
512.686696 -2056.327342 1117.898368
511.734844 -2056.439620 1119.653751
510.782991 -2056.551899 1121.409134
509.831139 -2056.664178 1123.164518
508.879287 -2056.776457 1124.919901
507.927434 -2056.888736 1126.675284
506.975582 -2057.001015 1128.430668
506.023730 -2057.113294 1130.186051
505.071878 -2057.225572 1131.941434
504.120025 -2057.337851 1133.696818
503.168173 -2057.450130 1135.452201
502.216321 -2057.562409 1137.207584
501.264468 -2057.674688 1138.962968
500.312616 -2057.786967 1140.718351
499.360764 -2057.899246 1142.473734
498.408912 -2058.011524 1144.229118
497.457059 -2058.123803 1145.984501
496.505207 -2058.236082 1147.739884
495.553355 -2058.348361 1149.495268
494.601502 -2058.460640 1151.250651
493.649650 -2058.572919 1153.006034
492.697798 -2058.685198 1154.761418
491.745946 -2058.797476 1156.516801
490.794093 -2058.909755 1158.272185
489.842241 -2059.022034 1160.027568
488.890389 -2059.134313 1161.782951
487.938536 -2059.246592 1163.538335
486.986684 -2059.358871 1165.293718
486.034832 -2059.471150 1167.049101
485.082980 -2059.583429 1168.804485
484.131127 -2059.695707 1170.559868
483.179275 -2059.807986 1172.315251
482.227423 -2059.920265 1174.070635
481.275571 -2060.032544 1175.826018
480.323718 -2060.144823 1177.581401
479.371866 -2060.257102 1179.336785
478.420014 -2060.369381 1181.092168
477.468161 -2060.481659 1182.847551
476.516309 -2060.593938 1184.602935
475.564457 -2060.706217 1186.358318
474.612605 -2060.818496 1188.113701
473.660752 -2060.930775 1189.869085
472.708900 -2061.043054 1191.624468
471.757048 -2061.155333 1193.379851
470.805195 -2061.267611 1195.135235
469.853343 -2061.379890 1196.890618
468.901491 -2061.492169 1198.646001
467.949639 -2061.604448 1200.401385
466.997786 -2061.716727 1202.156768
466.045934 -2061.829006 1203.912151
465.094082 -2061.941285 1205.667535
464.142229 -2062.053564 1207.422918
463.190377 -2062.165842 1209.178302
462.238525 -2062.278121 1210.933685
461.286673 -2062.390400 1212.689068
460.334820 -2062.502679 1214.444452
459.382968 -2062.614958 1216.199835
458.431116 -2062.727237 1217.955218
457.479263 -2062.839516 1219.710602
456.527411 -2062.951794 1221.465985
455.575559 -2063.064073 1223.221368
454.623707 -2063.176352 1224.976752
453.671854 -2063.288631 1226.732135
452.720002 -2063.400910 1228.487518
451.768150 -2063.513189 1230.242902
450.816297 -2063.625468 1231.998285
449.864445 -2063.737746 1233.753668
448.912593 -2063.850025 1235.509052
447.960741 -2063.962304 1237.264435
447.008888 -2064.074583 1239.019818
446.057036 -2064.186862 1240.775202
445.105184 -2064.299141 1242.530585
444.153332 -2064.411420 1244.285968
443.201479 -2064.523699 1246.041352
442.249627 -2064.635977 1247.796735
441.297775 -2064.748256 1249.552118
440.345922 -2064.860535 1251.307502
439.394070 -2064.972814 1253.062885
438.442218 -2065.085093 1254.818269
437.490366 -2065.197372 1256.573652
436.538513 -2065.309651 1258.329035
435.586661 -2065.421929 1260.084419
434.634809 -2065.534208 1261.839802
433.682956 -2065.646487 1263.595185
432.731104 -2065.758766 1265.350569
431.779252 -2065.871045 1267.105952
430.827400 -2065.983324 1268.861335
429.875547 -2066.095603 1270.616719
428.923695 -2066.207881 1272.372102
427.971843 -2066.320160 1274.127485
427.019990 -2066.432439 1275.882869
426.068138 -2066.544718 1277.638252
425.116286 -2066.656997 1279.393635
424.164434 -2066.769276 1281.149019
423.212581 -2066.881555 1282.904402
422.260729 -2066.993833 1284.659785
421.308877 -2067.106112 1286.415169
420.357024 -2067.218391 1288.170552
419.405172 -2067.330670 1289.925935
418.453320 -2067.442949 1291.681319
417.501468 -2067.555228 1293.436702
416.549615 -2067.667507 1295.192085
415.597763 -2067.779786 1296.947469
414.645911 -2067.892064 1298.702852
413.694058 -2068.004343 1300.458235
412.742206 -2068.116622 1302.213619
411.790354 -2068.228901 1303.969002
410.838502 -2068.341180 1305.724386
409.886649 -2068.453459 1307.479769
408.934797 -2068.565738 1309.235152
407.982945 -2068.678016 1310.990536
407.031092 -2068.790295 1312.745919
406.079240 -2068.902574 1314.501302
405.127388 -2069.014853 1316.256686
404.175536 -2069.127132 1318.012069
403.223683 -2069.239411 1319.767452
402.271831 -2069.351690 1321.522836
401.319979 -2069.463968 1323.278219
400.368127 -2069.576247 1325.033602
399.416274 -2069.688526 1326.788986
398.464422 -2069.800805 1328.544369
397.512570 -2069.913084 1330.299752
396.560717 -2070.025363 1332.055136
395.608865 -2070.137642 1333.810519
394.657013 -2070.249921 1335.565902
393.705161 -2070.362199 1337.321286
392.753308 -2070.474478 1339.076669
391.801456 -2070.586757 1340.832052
390.849604 -2070.699036 1342.587436
389.897751 -2070.811315 1344.342819
388.945899 -2070.923594 1346.098202
387.994047 -2071.035873 1347.853586
387.042195 -2071.148151 1349.608969
386.090342 -2071.260430 1351.364353
385.138490 -2071.372709 1353.119736
384.186638 -2071.484988 1354.875119
383.234785 -2071.597267 1356.630503
382.282933 -2071.709546 1358.385886
381.331081 -2071.821825 1360.141269
380.379229 -2071.934103 1361.896653
379.427376 -2072.046382 1363.652036
378.475524 -2072.158661 1365.407419
377.523672 -2072.270940 1367.162803
376.571819 -2072.383219 1368.918186
375.619967 -2072.495498 1370.673569
374.668115 -2072.607777 1372.428953
373.716263 -2072.720055 1374.184336
372.764410 -2072.832334 1375.939719
371.812558 -2072.944613 1377.695103
370.860706 -2073.056892 1379.450486
369.908853 -2073.169171 1381.205869
368.957001 -2073.281450 1382.961253
368.005149 -2073.393729 1384.716636
367.053297 -2073.506008 1386.472019
366.101444 -2073.618286 1388.227403
365.149592 -2073.730565 1389.982786
364.197740 -2073.842844 1391.738169
363.245888 -2073.955123 1393.493553
362.294035 -2074.067402 1395.248936
361.342183 -2074.179681 1397.004319
360.390331 -2074.291960 1398.759703
359.438478 -2074.404238 1400.515086
358.486626 -2074.516517 1402.270470
357.534774 -2074.628796 1404.025853
356.582922 -2074.741075 1405.781236
355.631069 -2074.853354 1407.536620
354.679217 -2074.965633 1409.292003
353.727365 -2075.077912 1411.047386
352.775512 -2075.190190 1412.802770
351.823660 -2075.302469 1414.558153
350.871808 -2075.414748 1416.313536
349.919956 -2075.527027 1418.068920
348.968103 -2075.639306 1419.824303
348.016251 -2075.751585 1421.579686
347.064399 -2075.863864 1423.335070
346.112546 -2075.976143 1425.090453
345.160694 -2076.088421 1426.845836
344.208842 -2076.200700 1428.601220
343.256990 -2076.312979 1430.356603
342.305137 -2076.425258 1432.111986
341.353285 -2076.537537 1433.867370
340.401433 -2076.649816 1435.622753
339.449580 -2076.762095 1437.378136
338.497728 -2076.874373 1439.133520
337.545876 -2076.986652 1440.888903
336.594024 -2077.098931 1442.644286
335.642171 -2077.211210 1444.399670
334.690319 -2077.323489 1446.155053
333.738467 -2077.435768 1447.910437
332.786614 -2077.548047 1449.665820
331.834762 -2077.660325 1451.421203
330.882910 -2077.772604 1453.176587
329.931058 -2077.884883 1454.931970
328.979205 -2077.997162 1456.687353
328.027353 -2078.109441 1458.442737
327.075501 -2078.221720 1460.198120
326.123648 -2078.333999 1461.953503
325.171796 -2078.446278 1463.708887
324.219944 -2078.558556 1465.464270
323.268092 -2078.670835 1467.219653
322.316239 -2078.783114 1468.975037
321.364387 -2078.895393 1470.730420
320.412535 -2079.007672 1472.485803
319.460683 -2079.119951 1474.241187
318.508830 -2079.232230 1475.996570
317.556978 -2079.344508 1477.751953
316.605126 -2079.456787 1479.507337
315.653273 -2079.569066 1481.262720
314.701421 -2079.681345 1483.018103
313.749569 -2079.793624 1484.773487
312.000000 -2080.000000 1488.000000
311.739563 -2081.823058 1488.780148
311.479126 -2083.646117 1489.560296
311.218689 -2085.469175 1490.340444
310.958252 -2087.292233 1491.120592
310.697815 -2089.115292 1491.900740
310.437379 -2090.938350 1492.680888
310.176942 -2092.761408 1493.461036
309.916505 -2094.584467 1494.241184
309.656068 -2096.407525 1495.021332
309.395631 -2098.230583 1495.801480
309.135194 -2100.053642 1496.581628
308.874757 -2101.876700 1497.361777
308.614320 -2103.699758 1498.141925
308.353883 -2105.522817 1498.922073
308.093446 -2107.345875 1499.702221
307.833010 -2109.168933 1500.482369
307.572573 -2110.991991 1501.262517
307.312136 -2112.815050 1502.042665
307.051699 -2114.638108 1502.822813
306.791262 -2116.461166 1503.602961
306.530825 -2118.284225 1504.383109
306.270388 -2120.107283 1505.163257
306.009951 -2121.930341 1505.943405
305.749514 -2123.753400 1506.723553
305.489077 -2125.576458 1507.503701
305.228641 -2127.399516 1508.283849
304.968204 -2129.222575 1509.063997
304.707767 -2131.045633 1509.844145
304.447330 -2132.868691 1510.624293
304.186893 -2134.691750 1511.404441
303.926456 -2136.514808 1512.184589
303.666019 -2138.337866 1512.964737
303.405582 -2140.160925 1513.744885
303.145145 -2141.983983 1514.525034
302.884708 -2143.807041 1515.305182
302.624271 -2145.630100 1516.085330
302.363835 -2147.453158 1516.865478
302.103398 -2149.276216 1517.645626
301.842961 -2151.099275 1518.425774
301.582524 -2152.922333 1519.205922
301.322087 -2154.745391 1519.986070
301.061650 -2156.568450 1520.766218
300.801213 -2158.391508 1521.546366
300.540776 -2160.214566 1522.326514
300.280339 -2162.037625 1523.106662
300.019902 -2163.860683 1523.886810
299.759466 -2165.683741 1524.666958
299.499029 -2167.506799 1525.447106
299.238592 -2169.329858 1526.227254
298.978155 -2171.152916 1527.007402
298.717718 -2172.975974 1527.787550
298.457281 -2174.799033 1528.567698
298.196844 -2176.622091 1529.347846
297.936407 -2178.445149 1530.127994
297.675970 -2180.268208 1530.908142
297.415533 -2182.091266 1531.688291
297.155097 -2183.914324 1532.468439
296.894660 -2185.737383 1533.248587
296.634223 -2187.560441 1534.028735
296.373786 -2189.383499 1534.808883
296.113349 -2191.206558 1535.589031
295.852912 -2193.029616 1536.369179
295.592475 -2194.852674 1537.149327
295.332038 -2196.675733 1537.929475
295.071601 -2198.498791 1538.709623
294.811164 -2200.321849 1539.489771
294.550727 -2202.144908 1540.269919
294.290291 -2203.967966 1541.050067
294.029854 -2205.791024 1541.830215
293.769417 -2207.614083 1542.610363
293.508980 -2209.437141 1543.390511
293.248543 -2211.260199 1544.170659
292.988106 -2213.083258 1544.950807
292.727669 -2214.906316 1545.730955
292.467232 -2216.729374 1546.511103
292.206795 -2218.552433 1547.291251
291.946358 -2220.375491 1548.071399
291.685922 -2222.198549 1548.851548
291.425485 -2224.021607 1549.631696
291.165048 -2225.844666 1550.411844
290.904611 -2227.667724 1551.191992
290.644174 -2229.490782 1551.972140
290.383737 -2231.313841 1552.752288
290.123300 -2233.136899 1553.532436
289.862863 -2234.959957 1554.312584
289.602426 -2236.783016 1555.092732
289.341989 -2238.606074 1555.872880
289.081553 -2240.429132 1556.653028
288.821116 -2242.252191 1557.433176
288.560679 -2244.075249 1558.213324
288.300242 -2245.898307 1558.993472
288.039805 -2247.721366 1559.773620
287.779368 -2249.544424 1560.553768
287.518931 -2251.367482 1561.333916
287.258494 -2253.190541 1562.114064
286.998057 -2255.013599 1562.894212
286.737620 -2256.836657 1563.674360
286.477183 -2258.659716 1564.454508
286.216747 -2260.482774 1565.234656
285.956310 -2262.305832 1566.014804
285.695873 -2264.128891 1566.794953
285.435436 -2265.951949 1567.575101
285.174999 -2267.775007 1568.355249
284.914562 -2269.598066 1569.135397
284.654125 -2271.421124 1569.915545
284.393688 -2273.244182 1570.695693
284.133251 -2275.067241 1571.475841
283.872814 -2276.890299 1572.255989
283.612378 -2278.713357 1573.036137
283.351941 -2280.536415 1573.816285
283.091504 -2282.359474 1574.596433
282.831067 -2284.182532 1575.376581
282.570630 -2286.005590 1576.156729
282.310193 -2287.828649 1576.936877
282.049756 -2289.651707 1577.717025
281.789319 -2291.474765 1578.497173
281.528882 -2293.297824 1579.277321
281.268445 -2295.120882 1580.057469
281.008009 -2296.943940 1580.837617
280.747572 -2298.766999 1581.617765
280.487135 -2300.590057 1582.397913
280.226698 -2302.413115 1583.178061
279.966261 -2304.236174 1583.958210
279.705824 -2306.059232 1584.738358
279.445387 -2307.882290 1585.518506
279.184950 -2309.705349 1586.298654
278.924513 -2311.528407 1587.078802
278.664076 -2313.351465 1587.858950
278.403639 -2315.174524 1588.639098
278.143203 -2316.997582 1589.419246
277.882766 -2318.820640 1590.199394
277.622329 -2320.643699 1590.979542
277.361892 -2322.466757 1591.759690
277.101455 -2324.289815 1592.539838
276.841018 -2326.112874 1593.319986
276.580581 -2327.935932 1594.100134
276.320144 -2329.758990 1594.880282
276.059707 -2331.582049 1595.660430
275.799270 -2333.405107 1596.440578
275.538834 -2335.228165 1597.220726
275.278397 -2337.051223 1598.000874
275.017960 -2338.874282 1598.781022
274.757523 -2340.697340 1599.561170
274.497086 -2342.520398 1600.341318
274.236649 -2344.343457 1601.121467
273.976212 -2346.166515 1601.901615
273.715775 -2347.989573 1602.681763
273.455338 -2349.812632 1603.461911
273.194901 -2351.635690 1604.242059
272.934465 -2353.458748 1605.022207
272.674028 -2355.281807 1605.802355
272.413591 -2357.104865 1606.582503
272.153154 -2358.927923 1607.362651
271.892717 -2360.750982 1608.142799
271.632280 -2362.574040 1608.922947
271.371843 -2364.397098 1609.703095
271.111406 -2366.220157 1610.483243
270.850969 -2368.043215 1611.263391
270.590532 -2369.866273 1612.043539
270.330095 -2371.689332 1612.823687
270.069659 -2373.512390 1613.603835
269.809222 -2375.335448 1614.383983
269.548785 -2377.158507 1615.164131
269.288348 -2378.981565 1615.944279
269.027911 -2380.804623 1616.724427
268.767474 -2382.627682 1617.504575
268.507037 -2384.450740 1618.284724
268.246600 -2386.273798 1619.064872
267.986163 -2388.096857 1619.845020
267.725726 -2389.919915 1620.625168
267.465290 -2391.742973 1621.405316
267.204853 -2393.566031 1622.185464
266.944416 -2395.389090 1622.965612
266.683979 -2397.212148 1623.745760
266.423542 -2399.035206 1624.525908
266.163105 -2400.858265 1625.306056
265.902668 -2402.681323 1626.086204
265.642231 -2404.504381 1626.866352
265.381794 -2406.327440 1627.646500
265.121357 -2408.150498 1628.426648
264.860921 -2409.973556 1629.206796
264.600484 -2411.796615 1629.986944
264.340047 -2413.619673 1630.767092
264.079610 -2415.442731 1631.547240
263.819173 -2417.265790 1632.327388
263.558736 -2419.088848 1633.107536
263.298299 -2420.911906 1633.887684
263.037862 -2422.734965 1634.667832
262.777425 -2424.558023 1635.447980
262.516988 -2426.381081 1636.228129
262.256551 -2428.204140 1637.008277
261.996115 -2430.027198 1637.788425
261.735678 -2431.850256 1638.568573
261.475241 -2433.673315 1639.348721
261.214804 -2435.496373 1640.128869
260.954367 -2437.319431 1640.909017
260.693930 -2439.142490 1641.689165
260.433493 -2440.965548 1642.469313
260.173056 -2442.788606 1643.249461
259.912619 -2444.611665 1644.029609
259.652182 -2446.434723 1644.809757
259.391746 -2448.257781 1645.589905
259.131309 -2450.080839 1646.370053
258.870872 -2451.903898 1647.150201
258.610435 -2453.726956 1647.930349
258.349998 -2455.550014 1648.710497
258.089561 -2457.373073 1649.490645
257.829124 -2459.196131 1650.270793
257.568687 -2461.019189 1651.050941
257.308250 -2462.842248 1651.831089
257.047813 -2464.665306 1652.611237
256.787377 -2466.488364 1653.391386
256.526940 -2468.311423 1654.171534
256.266503 -2470.134481 1654.951682
256.006066 -2471.957539 1655.731830
255.745629 -2473.780598 1656.511978
255.485192 -2475.603656 1657.292126
255.224755 -2477.426714 1658.072274
254.964318 -2479.249773 1658.852422
254.703881 -2481.072831 1659.632570
254.443444 -2482.895889 1660.412718
254.183007 -2484.718948 1661.192866
253.922571 -2486.542006 1661.973014
253.662134 -2488.365064 1662.753162
253.401697 -2490.188123 1663.533310
253.141260 -2492.011181 1664.313458
252.880823 -2493.834239 1665.093606
252.620386 -2495.657298 1665.873754
252.359949 -2497.480356 1666.653902
252.099512 -2499.303414 1667.434050
251.839075 -2501.126473 1668.214198
251.578638 -2502.949531 1668.994346
251.318202 -2504.772589 1669.774494
251.057765 -2506.595647 1670.554643
250.797328 -2508.418706 1671.334791
250.536891 -2510.241764 1672.114939
250.276454 -2512.064822 1672.895087
250.016017 -2513.887881 1673.675235
249.755580 -2515.710939 1674.455383
249.495143 -2517.533997 1675.235531
249.234706 -2519.357056 1676.015679
248.974269 -2521.180114 1676.795827
248.713833 -2523.003172 1677.575975
248.453396 -2524.826231 1678.356123
248.192959 -2526.649289 1679.136271
247.932522 -2528.472347 1679.916419
247.672085 -2530.295406 1680.696567
247.411648 -2532.118464 1681.476715
247.151211 -2533.941522 1682.256863
246.890774 -2535.764581 1683.037011
246.630337 -2537.587639 1683.817159
246.369900 -2539.410697 1684.597307
246.109463 -2541.233756 1685.377455
245.849027 -2543.056814 1686.157603
245.588590 -2544.879872 1686.937751
245.328153 -2546.702931 1687.717899
245.067716 -2548.525989 1688.498048
244.807279 -2550.349047 1689.278196
244.546842 -2552.172106 1690.058344
244.286405 -2553.995164 1690.838492
244.025968 -2555.818222 1691.618640
243.765531 -2557.641281 1692.398788
243.505094 -2559.464339 1693.178936
243.244658 -2561.287397 1693.959084
242.984221 -2563.110455 1694.739232
242.723784 -2564.933514 1695.519380
242.463347 -2566.756572 1696.299528
242.202910 -2568.579630 1697.079676
241.942473 -2570.402689 1697.859824
241.682036 -2572.225747 1698.639972
241.421599 -2574.048805 1699.420120
241.161162 -2575.871864 1700.200268
240.900725 -2577.694922 1700.980416
240.640289 -2579.517980 1701.760564
240.379852 -2581.341039 1702.540712
240.119415 -2583.164097 1703.320860
239.858978 -2584.987155 1704.101008
239.598541 -2586.810214 1704.881156
239.338104 -2588.633272 1705.661305
239.077667 -2590.456330 1706.441453
238.817230 -2592.279389 1707.221601
238.556793 -2594.102447 1708.001749
238.296356 -2595.925505 1708.781897
238.035919 -2597.748564 1709.562045
237.775483 -2599.571622 1710.342193
237.515046 -2601.394680 1711.122341
237.254609 -2603.217739 1711.902489
236.994172 -2605.040797 1712.682637
236.733735 -2606.863855 1713.462785
236.473298 -2608.686914 1714.242933
236.212861 -2610.509972 1715.023081
235.952424 -2612.333030 1715.803229
235.691987 -2614.156089 1716.583377
235.431550 -2615.979147 1717.363525
235.171114 -2617.802205 1718.143673
234.910677 -2619.625263 1718.923821
234.650240 -2621.448322 1719.703969
234.389803 -2623.271380 1720.484117
234.129366 -2625.094438 1721.264265
233.868929 -2626.917497 1722.044413
233.608492 -2628.740555 1722.824562
233.348055 -2630.563613 1723.604710
233.087618 -2632.386672 1724.384858
232.827181 -2634.209730 1725.165006
232.566745 -2636.032788 1725.945154
232.306308 -2637.855847 1726.725302
232.045871 -2639.678905 1727.505450
231.785434 -2641.501963 1728.285598
231.524997 -2643.325022 1729.065746
231.264560 -2645.148080 1729.845894
231.004123 -2646.971138 1730.626042
230.743686 -2648.794197 1731.406190
230.483249 -2650.617255 1732.186338
230.222812 -2652.440313 1732.966486
229.962375 -2654.263372 1733.746634
229.701939 -2656.086430 1734.526782
229.441502 -2657.909488 1735.306930
229.181065 -2659.732547 1736.087078
228.920628 -2661.555605 1736.867226
228.660191 -2663.378663 1737.647374
228.399754 -2665.201722 1738.427522
228.139317 -2667.024780 1739.207670
227.878880 -2668.847838 1739.987819
227.618443 -2670.670897 1740.767967
227.358006 -2672.493955 1741.548115
227.097570 -2674.317013 1742.328263
226.837133 -2676.140071 1743.108411
226.576696 -2677.963130 1743.888559
226.316259 -2679.786188 1744.668707
226.055822 -2681.609246 1745.448855
225.795385 -2683.432305 1746.229003
225.534948 -2685.255363 1747.009151
225.274511 -2687.078421 1747.789299
225.014074 -2688.901480 1748.569447
224.753637 -2690.724538 1749.349595
224.493201 -2692.547596 1750.129743
224.232764 -2694.370655 1750.909891
223.972327 -2696.193713 1751.690039
223.711890 -2698.016771 1752.470187
223.451453 -2699.839830 1753.250335
223.191016 -2701.662888 1754.030483
222.930579 -2703.485946 1754.810631
222.670142 -2705.309005 1755.590779
222.409705 -2707.132063 1756.370927
222.149268 -2708.955121 1757.151075
221.888831 -2710.778180 1757.931224
221.628395 -2712.601238 1758.711372
221.367958 -2714.424296 1759.491520
221.107521 -2716.247355 1760.271668
220.847084 -2718.070413 1761.051816
220.586647 -2719.893471 1761.831964
220.326210 -2721.716530 1762.612112
220.065773 -2723.539588 1763.392260
219.805336 -2725.362646 1764.172408
219.544899 -2727.185705 1764.952556
219.284462 -2729.008763 1765.732704
219.024026 -2730.831821 1766.512852
218.763589 -2732.654879 1767.293000
218.503152 -2734.477938 1768.073148
218.242715 -2736.300996 1768.853296
217.982278 -2738.124054 1769.633444
217.721841 -2739.947113 1770.413592
217.461404 -2741.770171 1771.193740
217.200967 -2743.593229 1771.973888
216.940530 -2745.416288 1772.754036
216.680093 -2747.239346 1773.534184
216.419657 -2749.062404 1774.314332
216.159220 -2750.885463 1775.094481
215.898783 -2752.708521 1775.874629
215.638346 -2754.531579 1776.654777
215.377909 -2756.354638 1777.434925
215.117472 -2758.177696 1778.215073
214.857035 -2760.000754 1778.995221
214.596598 -2761.823813 1779.775369
214.336161 -2763.646871 1780.555517
214.075724 -2765.469929 1781.335665
213.815287 -2767.292988 1782.115813
213.554851 -2769.116046 1782.895961
213.294414 -2770.939104 1783.676109
213.033977 -2772.762163 1784.456257
212.773540 -2774.585221 1785.236405
212.513103 -2776.408279 1786.016553
212.252666 -2778.231338 1786.796701
211.992229 -2780.054396 1787.576849
211.731792 -2781.877454 1788.356997
211.471355 -2783.700513 1789.137145
211.210918 -2785.523571 1789.917293
210.950482 -2787.346629 1790.697441
210.690045 -2789.169687 1791.477589
210.429608 -2790.992746 1792.257738
210.169171 -2792.815804 1793.037886
209.908734 -2794.638862 1793.818034
209.648297 -2796.461921 1794.598182
209.387860 -2798.284979 1795.378330
209.127423 -2800.108037 1796.158478
208.866986 -2801.931096 1796.938626
208.606549 -2803.754154 1797.718774
208.346113 -2805.577212 1798.498922
208.085676 -2807.400271 1799.279070
207.825239 -2809.223329 1800.059218
207.564802 -2811.046387 1800.839366
207.304365 -2812.869446 1801.619514
207.043928 -2814.692504 1802.399662
206.783491 -2816.515562 1803.179810
206.523054 -2818.338621 1803.959958
206.262617 -2820.161679 1804.740106
206.002180 -2821.984737 1805.520254
205.741743 -2823.807796 1806.300402
205.481307 -2825.630854 1807.080550
205.220870 -2827.453912 1807.860698
204.960433 -2829.276971 1808.640846
204.699996 -2831.100029 1809.420995
204.439559 -2832.923087 1810.201143
204.179122 -2834.746146 1810.981291
203.918685 -2836.569204 1811.761439
203.658248 -2838.392262 1812.541587
203.397811 -2840.215321 1813.321735
203.137374 -2842.038379 1814.101883
202.876938 -2843.861437 1814.882031
202.616501 -2845.684495 1815.662179
202.356064 -2847.507554 1816.442327
202.095627 -2849.330612 1817.222475
201.835190 -2851.153670 1818.002623
201.574753 -2852.976729 1818.782771
201.314316 -2854.799787 1819.562919
201.053879 -2856.622845 1820.343067
200.793442 -2858.445904 1821.123215
200.533005 -2860.268962 1821.903363
200.272569 -2862.092020 1822.683511
200.000000 -2864.000000 1823.500000
201.667916 -2865.103584 1823.487459
203.335833 -2866.207168 1823.474919
205.003749 -2867.310752 1823.462378
206.671666 -2868.414335 1823.449837
208.339582 -2869.517919 1823.437296
210.007499 -2870.621503 1823.424756
211.675415 -2871.725087 1823.412215
213.343332 -2872.828671 1823.399674
215.011248 -2873.932255 1823.387133
216.679165 -2875.035838 1823.374593
218.347081 -2876.139422 1823.362052
220.014998 -2877.243006 1823.349511
221.682914 -2878.346590 1823.336971
223.350831 -2879.450174 1823.324430
225.018747 -2880.553758 1823.311889
226.686664 -2881.657342 1823.299348
228.354580 -2882.760925 1823.286808
230.022497 -2883.864509 1823.274267
231.690413 -2884.968093 1823.261726
233.358330 -2886.071677 1823.249185
235.026246 -2887.175261 1823.236645
236.694163 -2888.278845 1823.224104
238.362079 -2889.382428 1823.211563
240.029996 -2890.486012 1823.199023
241.697912 -2891.589596 1823.186482
243.365829 -2892.693180 1823.173941
245.033745 -2893.796764 1823.161400
246.701662 -2894.900348 1823.148860
248.369578 -2896.003932 1823.136319
250.037495 -2897.107515 1823.123778
251.705411 -2898.211099 1823.111238
253.373328 -2899.314683 1823.098697
255.041244 -2900.418267 1823.086156
256.709161 -2901.521851 1823.073615
258.377077 -2902.625435 1823.061075
260.044994 -2903.729018 1823.048534
261.712910 -2904.832602 1823.035993
263.380827 -2905.936186 1823.023452
266.500000 -2908.000000 1823.000000
266.286620 -2908.000000 1821.011415
266.073240 -2908.000000 1819.022831
265.859859 -2908.000000 1817.034246
265.646479 -2908.000000 1815.045661
265.433099 -2908.000000 1813.057077
265.219719 -2908.000000 1811.068492
265.006339 -2908.000000 1809.079907
264.792959 -2908.000000 1807.091323
264.579578 -2908.000000 1805.102738
264.366198 -2908.000000 1803.114154
264.152818 -2908.000000 1801.125569
263.939438 -2908.000000 1799.136984
263.726058 -2908.000000 1797.148400
263.512678 -2908.000000 1795.159815
263.299297 -2908.000000 1793.171230
263.085917 -2908.000000 1791.182646
262.872537 -2908.000000 1789.194061
262.659157 -2908.000000 1787.205476
262.445777 -2908.000000 1785.216892
262.232397 -2908.000000 1783.228307
262.019016 -2908.000000 1781.239722
261.805636 -2908.000000 1779.251138
261.592256 -2908.000000 1777.262553
261.378876 -2908.000000 1775.273968
261.165496 -2908.000000 1773.285384
260.952116 -2908.000000 1771.296799
260.738735 -2908.000000 1769.308215
260.525355 -2908.000000 1767.319630
260.311975 -2908.000000 1765.331045
260.098595 -2908.000000 1763.342461
259.885215 -2908.000000 1761.353876
259.671835 -2908.000000 1759.365291
259.458454 -2908.000000 1757.376707
259.245074 -2908.000000 1755.388122
259.031694 -2908.000000 1753.399537
258.818314 -2908.000000 1751.410953
258.604934 -2908.000000 1749.422368
258.391554 -2908.000000 1747.433783
258.178173 -2908.000000 1745.445199
257.964793 -2908.000000 1743.456614
257.751413 -2908.000000 1741.468029
257.538033 -2908.000000 1739.479445
257.324653 -2908.000000 1737.490860
257.111272 -2908.000000 1735.502275
256.897892 -2908.000000 1733.513691
256.684512 -2908.000000 1731.525106
256.471132 -2908.000000 1729.536522
256.257752 -2908.000000 1727.547937
256.044372 -2908.000000 1725.559352
255.830991 -2908.000000 1723.570768
255.617611 -2908.000000 1721.582183
255.404231 -2908.000000 1719.593598
255.190851 -2908.000000 1717.605014
254.977471 -2908.000000 1715.616429
254.764091 -2908.000000 1713.627844
254.550710 -2908.000000 1711.639260
254.337330 -2908.000000 1709.650675
254.123950 -2908.000000 1707.662090
253.910570 -2908.000000 1705.673506
253.697190 -2908.000000 1703.684921
253.483810 -2908.000000 1701.696336
253.270429 -2908.000000 1699.707752
253.057049 -2908.000000 1697.719167
252.843669 -2908.000000 1695.730583
252.630289 -2908.000000 1693.741998
252.416909 -2908.000000 1691.753413
252.203529 -2908.000000 1689.764829
251.990148 -2908.000000 1687.776244
251.776768 -2908.000000 1685.787659
251.563388 -2908.000000 1683.799075
251.350008 -2908.000000 1681.810490
251.136628 -2908.000000 1679.821905
250.923248 -2908.000000 1677.833321
250.709867 -2908.000000 1675.844736
250.496487 -2908.000000 1673.856151
250.283107 -2908.000000 1671.867567
250.069727 -2908.000000 1669.878982
249.856347 -2908.000000 1667.890397
249.642967 -2908.000000 1665.901813
249.429586 -2908.000000 1663.913228
249.216206 -2908.000000 1661.924644
249.002826 -2908.000000 1659.936059
248.789446 -2908.000000 1657.947474
248.576066 -2908.000000 1655.958890
248.362685 -2908.000000 1653.970305
248.149305 -2908.000000 1651.981720
247.935925 -2908.000000 1649.993136
247.722545 -2908.000000 1648.004551
247.509165 -2908.000000 1646.015966
247.295785 -2908.000000 1644.027382
247.082404 -2908.000000 1642.038797
246.869024 -2908.000000 1640.050212
246.655644 -2908.000000 1638.061628
246.442264 -2908.000000 1636.073043
246.228884 -2908.000000 1634.084458
246.015504 -2908.000000 1632.095874
245.802123 -2908.000000 1630.107289
245.588743 -2908.000000 1628.118704
245.375363 -2908.000000 1626.130120
245.161983 -2908.000000 1624.141535
244.948603 -2908.000000 1622.152951
244.735223 -2908.000000 1620.164366
244.521842 -2908.000000 1618.175781
244.308462 -2908.000000 1616.187197
244.095082 -2908.000000 1614.198612
243.881702 -2908.000000 1612.210027
243.668322 -2908.000000 1610.221443
243.454942 -2908.000000 1608.232858
243.241561 -2908.000000 1606.244273
243.028181 -2908.000000 1604.255689
242.814801 -2908.000000 1602.267104
242.601421 -2908.000000 1600.278519
242.388041 -2908.000000 1598.289935
242.174661 -2908.000000 1596.301350
241.961280 -2908.000000 1594.312765
241.747900 -2908.000000 1592.324181
241.534520 -2908.000000 1590.335596
241.321140 -2908.000000 1588.347012
241.107760 -2908.000000 1586.358427
240.894379 -2908.000000 1584.369842
240.680999 -2908.000000 1582.381258
240.467619 -2908.000000 1580.392673
240.254239 -2908.000000 1578.404088
240.040859 -2908.000000 1576.415504
239.827479 -2908.000000 1574.426919
239.614098 -2908.000000 1572.438334
239.400718 -2908.000000 1570.449750
239.187338 -2908.000000 1568.461165
238.973958 -2908.000000 1566.472580
238.760578 -2908.000000 1564.483996
238.547198 -2908.000000 1562.495411
238.333817 -2908.000000 1560.506826
238.120437 -2908.000000 1558.518242
237.907057 -2908.000000 1556.529657
237.693677 -2908.000000 1554.541073
237.480297 -2908.000000 1552.552488
237.266917 -2908.000000 1550.563903
237.053536 -2908.000000 1548.575319
236.840156 -2908.000000 1546.586734
236.626776 -2908.000000 1544.598149
236.413396 -2908.000000 1542.609565
236.200016 -2908.000000 1540.620980
235.986636 -2908.000000 1538.632395
235.773255 -2908.000000 1536.643811
235.559875 -2908.000000 1534.655226
235.346495 -2908.000000 1532.666641
235.133115 -2908.000000 1530.678057
234.919735 -2908.000000 1528.689472
234.706355 -2908.000000 1526.700887
234.492974 -2908.000000 1524.712303
234.279594 -2908.000000 1522.723718
234.066214 -2908.000000 1520.735133
233.852834 -2908.000000 1518.746549
233.639454 -2908.000000 1516.757964
233.426074 -2908.000000 1514.769380
233.212693 -2908.000000 1512.780795
232.999313 -2908.000000 1510.792210
232.785933 -2908.000000 1508.803626
232.572553 -2908.000000 1506.815041
232.359173 -2908.000000 1504.826456
232.145792 -2908.000000 1502.837872
231.932412 -2908.000000 1500.849287
231.719032 -2908.000000 1498.860702
231.505652 -2908.000000 1496.872118
231.292272 -2908.000000 1494.883533
231.078892 -2908.000000 1492.894948
230.865511 -2908.000000 1490.906364
230.652131 -2908.000000 1488.917779
230.438751 -2908.000000 1486.929194
230.225371 -2908.000000 1484.940610
230.011991 -2908.000000 1482.952025
229.798611 -2908.000000 1480.963441
229.585230 -2908.000000 1478.974856
229.371850 -2908.000000 1476.986271
229.158470 -2908.000000 1474.997687
228.945090 -2908.000000 1473.009102
228.731710 -2908.000000 1471.020517
